ply
format ascii 1.0
element vertex 1828
property float x
property float y
property float z
property float reflect_coeff
end_header
-3.5 21.22 0.8 0.8
-3.573 21.248 0.801 0.801
-3.598 21.187 0.799 0.799
-3.748 21.263 0.802 0.802
-3.82 21.278 0.803 0.803
-3.88 21.233 0.802 0.802
-3.459 15.786 0.653 0.653
-3.498 15.728 0.651 0.651
-3.549 15.721 0.651 0.651
-3.572 15.595 0.648 0.648
-3.617 15.568 0.648 0.648
-3.726 15.813 0.655 0.655
-19.04 72.024 2.256 2.256
-19.406 72.487 2.271 2.271
-19.592 72.272 2.266 2.266
-20.046 73.041 2.29 2.29
-14.456 37.591 1.315 1.315
-14.529 37.43 1.312 1.312
-23.809 60.815 2.003 2.003
-23.886 60.452 1.995 1.995
-15.018 37.633 1.322 1.322
-24.017 59.683 1.976 1.976
-24.125 59.411 1.971 1.971
-24.258 59.469 1.973 1.973
-24.485 59.491 1.976 1.976
-24.707 59.498 1.979 1.979
-24.812 59.227 1.973 1.973
-24.879 58.865 1.965 1.965
-24.966 58.558 1.958 1.958
-25.035 58.211 1.95 1.95
-25.028 57.944 1.943 1.943
-25.042 57.479 1.931 1.931
-25.346 55.768 1.892 1.892
-25.406 55.435 1.884 1.884
-25.46 55.324 1.882 1.882
-25.654 55.287 1.883 1.883
-25.801 55.149 1.882 1.882
-25.604 53.842 1.847 1.847
-25.664 53.534 1.84 1.84
-25.716 53.214 1.833 1.833
-25.688 52.943 1.826 1.826
-25.779 52.708 1.821 1.821
-25.983 52.704 1.823 1.823
-26.209 52.745 1.827 1.827
-26.435 52.783 1.831 1.831
-26.649 52.796 1.834 1.834
-26.877 52.835 1.837 1.837
-15.619 28.22 1.095 1.095
-15.7 28.157 1.094 1.094
-15.794 28.118 1.095 1.095
-15.997 28.27 1.101 1.101
-15.905 27.902 1.091 1.091
-15.841 27.689 1.085 1.085
-15.989 27.745 1.089 1.089
-32.23 53.047 1.914 1.914
-32.488 53.096 1.919 1.919
-32.728 53.113 1.923 1.923
-26.992 43.488 1.615 1.615
-26.384 41.771 1.566 1.566
-27.686 43.531 1.626 1.626
-26.974 41.54 1.57 1.57
-27.274 41.715 1.578 1.578
-26.101 37.807 1.471 1.471
-26.183 37.672 1.469 1.469
-27.71 39.341 1.531 1.531
-27.092 36.122 1.449 1.449
-27.185 35.892 1.446 1.446
-26.067 32.359 1.35 1.35
-26.18 30.779 1.319 1.319
-33.351 33.492 1.507 1.507
-31.316 31.053 1.42 1.42
-28.912 26.749 1.291 1.291
-28.925 26.593 1.288 1.288
-30.538 27.901 1.345 1.345
-30.688 27.862 1.348 1.348
-30.958 27.93 1.354 1.354
-31.933 28.63 1.387 1.387
-31.17 27.768 1.356 1.356
-15.336 12.886 0.759 0.759
-15.166 12.662 0.752 0.752
-15.185 12.596 0.751 0.751
-15.193 12.523 0.75 0.75
-15.178 12.431 0.748 0.748
-15.184 12.395 0.747 0.747
-15.22 12.345 0.747 0.747
-15.234 12.277 0.746 0.746
-15.246 12.208 0.745 0.745
-15.675 12.472 0.759 0.759
-34.96 25.595 1.399 1.399
-33.467 24.338 1.346 1.346
-32.961 23.813 1.326 1.326
-32.913 23.62 1.322 1.322
-32.97 23.505 1.321 1.321
-36.351 25.49 1.429 1.429
-31.454 21.905 1.262 1.262
-31.521 21.805 1.262 1.262
-32.694 19.772 1.258 1.258
-32.628 19.592 1.254 1.254
-32.627 19.452 1.252 1.252
-32.642 19.322 1.251 1.251
-32.646 19.256 1.25 1.25
-35.516 20.801 1.34 1.34
-56.118 32.648 1.993 1.993
-56.213 32.467 1.992 1.992
-56.823 32.582 2.008 2.008
-31.215 17.625 1.194 1.194
-31.214 17.56 1.193 1.193
-31.294 17.476 1.194 1.194
-33.152 18.379 1.25 1.25
-51.003 26.332 1.786 1.786
-51.025 26.14 1.784 1.784
-55.354 28.032 1.914 1.914
-35.563 17.58 1.299 1.299
-52.988 25.486 1.824 1.824
-54.532 24.459 1.851 1.851
-57.975 25.569 1.95 1.95
-58.031 25.376 1.949 1.949
-58.184 25.225 1.951 1.951
-58.097 24.971 1.946 1.946
-58.201 24.907 1.948 1.948
-42.332 17.094 1.463 1.463
-42.367 16.954 1.463 1.463
-42.362 16.798 1.461 1.461
-42.354 16.641 1.459 1.459
-42.38 16.497 1.458 1.458
-42.388 16.347 1.457 1.457
-42.385 16.193 1.455 1.455
-42.393 16.044 1.454 1.454
-42.371 15.96 1.453 1.453
-42.389 15.815 1.452 1.452
-38.023 14.047 1.322 1.322
-38.081 13.932 1.323 1.323
-42.371 15.354 1.447 1.447
-42.423 15.223 1.447 1.447
-42.35 15.046 1.444 1.444
-67.708 -13.639 2.106 2.106
-67.369 -13.681 2.098 2.098
-67.15 -13.856 2.093 2.093
-67.151 -14.077 2.094 2.094
-67.038 -14.273 2.092 2.092
-66.934 -14.471 2.09 2.09
-57.564 -13.685 1.834 1.834
-57.711 -13.911 1.84 1.84
-57.508 -14.054 1.835 1.835
-57.506 -14.245 1.837 1.837
-57.383 -14.31 1.834 1.834
-58.778 -15.444 1.879 1.879
-57.939 -16.693 1.865 1.865
-57.671 -16.812 1.859 1.859
-56.353 -17.782 1.832 1.832
-56.562 -18.043 1.84 1.84
-56.653 -18.269 1.844 1.844
-56.407 -18.385 1.839 1.839
-56.348 -18.562 1.839 1.839
-64.599 -21.501 2.079 2.079
-61.51 -20.689 1.992 1.992
-61.53 -20.911 1.994 1.994
-52.482 -18.301 1.736 1.736
-52.345 -18.438 1.734 1.734
-38.919 -13.853 1.344 1.344
-38.873 -13.975 1.344 1.344
-38.703 -14.051 1.34 1.34
-38.529 -14.057 1.336 1.336
-38.49 -14.18 1.336 1.336
-38.708 -14.398 1.343 1.343
-50.089 -18.803 1.679 1.679
-49.71 -18.839 1.669 1.669
-39.885 -15.265 1.382 1.382
-39.8 -15.375 1.381 1.381
-49.898 -19.45 1.68 1.68
-39.842 -15.608 1.384 1.384
-49.104 -19.765 1.663 1.663
-49.423 -20.074 1.674 1.674
-49.634 -20.341 1.683 1.683
-49.721 -20.56 1.687 1.687
-49.428 -20.53 1.679 1.679
-38.954 -16.329 1.369 1.369
-38.901 -16.451 1.369 1.369
-62.677 -26.72 2.081 2.081
-39.097 -16.969 1.38 1.38
-64.099 -28.644 2.138 2.138
-63.597 -29.627 2.136 2.136
17.636 -10.055 0.766 0.766
17.603 -9.963 0.764 0.764
17.57 -9.908 0.763 0.763
17.613 -9.859 0.763 0.763
17.655 -9.81 0.764 0.764
17.706 -9.766 0.764 0.764
17.693 -9.686 0.763 0.763
17.794 -9.669 0.765 0.765
17.984 -9.699 0.77 0.77
18.027 -9.686 0.771 0.771
18.086 -9.645 0.772 0.772
18.127 -9.593 0.772 0.772
20.059 -10.458 0.83 0.83
38.69 -17.418 1.375 1.375
39.048 -17.432 1.384 1.384
24.47 -10.822 0.944 0.944
24.513 -10.749 0.944 0.944
24.486 -10.645 0.942 0.942
24.646 -10.669 0.947 0.947
24.571 -10.362 0.941 0.941
24.633 -10.297 0.942 0.942
24.824 -10.195 0.946 0.946
24.778 -10.13 0.944 0.944
24.835 -10.063 0.945 0.945
24.95 -10.018 0.947 0.947
25 -9.856 0.947 0.947
25.125 -9.815 0.95 0.95
25.225 -9.763 0.952 0.952
50.526 -18.405 1.686 1.686
50.964 -18.383 1.697 1.697
52.146 -18.718 1.731 1.731
58.364 -19.924 1.903 1.903
58.675 -19.824 1.91 1.91
58.637 -19.709 1.908 1.908
59.004 -19.626 1.917 1.917
46.603 -13.409 1.541 1.541
45.95 -12.908 1.52 1.52
45.963 -12.756 1.519 1.519
45.398 -12.292 1.501 1.501
45.28 -12.108 1.497 1.497
45.573 -12.11 1.504 1.504
45.681 -11.985 1.506 1.506
45.538 -11.795 1.501 1.501
45.594 -11.656 1.502 1.502
53.189 -12.981 1.713 1.713
73.225 10.193 1.892 1.892
73.252 10.432 1.893 1.893
73.312 10.558 1.895 1.895
73.35 10.799 1.897 1.897
73.381 11.039 1.898 1.898
69.024 10.826 1.8 1.8
62.428 11.505 1.654 1.654
62.109 11.648 1.648 1.648
62.145 11.756 1.649 1.649
62.173 11.963 1.65 1.65
62.192 12.17 1.652 1.652
62.224 12.379 1.653 1.653
62.25 12.588 1.655 1.655
62.278 12.797 1.656 1.656
57.879 12.081 1.555 1.555
57.85 12.17 1.555 1.555
62.391 13.332 1.661 1.661
51.42 13.114 1.417 1.417
51.113 13.121 1.41 1.41
51.019 13.268 1.409 1.409
51.057 13.449 1.411 1.411
51.066 13.623 1.412 1.412
51.083 13.8 1.413 1.413
51.109 13.979 1.415 1.415
47.681 13.201 1.335 1.335
47.613 13.262 1.334 1.334
51.202 14.438 1.42 1.42
51.212 14.614 1.421 1.421
51.217 14.79 1.422 1.422
51.269 14.98 1.425 1.425
48.661 16.061 1.375 1.375
48.325 16.119 1.369 1.369
48.004 16.179 1.362 1.362
40.546 13.803 1.184 1.184
40.383 13.889 1.181 1.181
33.706 14.137 1.041 1.041
33.492 14.171 1.037 1.037
34.061 14.539 1.052 1.052
33.848 14.574 1.048 1.048
33.606 14.595 1.043 1.043
33.666 14.747 1.045 1.045
33.726 14.899 1.048 1.048
33.725 15.026 1.049 1.049
33.768 15.109 1.051 1.051
33.785 15.244 1.052 1.052
33.806 15.381 1.054 1.054
33.83 15.521 1.056 1.056
33.835 15.652 1.057 1.057
33.844 15.786 1.059 1.059
36.78 17.228 1.133 1.133
36.782 17.37 1.135 1.135
36.796 17.518 1.136 1.136
34.135 16.381 1.071 1.071
34.02 16.458 1.069 1.069
33.983 16.572 1.069 1.069
34.013 16.719 1.071 1.071
34.035 16.796 1.073 1.073
29.244 14.657 0.953 0.953
29.164 14.732 0.952 0.952
29.765 18.035 1.001 1.001
29.733 18.08 1.001 1.001
29.579 18.114 0.998 0.998
23.209 15.65 0.846 0.846
23.176 15.734 0.846 0.846
23.026 15.738 0.844 0.844
22.74 15.647 0.837 0.837
22.825 15.812 0.841 0.841
19.789 13.936 0.76 0.76
19.729 13.986 0.759 0.759
19.618 14.001 0.757 0.757
19.582 14.068 0.757 0.757
19.483 14.089 0.756 0.756
19.534 14.173 0.758 0.758
19.436 14.195 0.756 0.756
19.449 14.299 0.758 0.758
19.553 14.471 0.762 0.762
19.533 14.551 0.763 0.763
22.283 16.714 0.843 0.843
22.291 16.829 0.844 0.844
22.344 16.925 0.847 0.847
22.351 17.041 0.848 0.848
22.369 17.166 0.85 0.85
22.383 17.289 0.852 0.852
22.401 17.416 0.855 0.855
22.408 17.534 0.856 0.856
25.423 20.027 0.945 0.945
25.441 20.171 0.948 0.948
22.76 18.101 0.871 0.871
22.525 18.145 0.867 0.867
22.528 18.265 0.869 0.869
22.545 18.397 0.871 0.871
22.554 18.522 0.873 0.873
22.415 18.526 0.871 0.871
11.083 15.478 0.642 0.642
11.016 15.487 0.641 0.641
10.977 15.536 0.642 0.642
14.237 21.208 0.79 0.79
14.264 21.394 0.794 0.794
14.28 21.564 0.797 0.797
14.309 21.757 0.801 0.801
14.367 21.92 0.805 0.805
14.384 22.098 0.809 0.809
14.408 22.288 0.813 0.813
14.426 22.471 0.816 0.816
14.453 22.669 0.821 0.821
14.48 22.87 0.825 0.825
14.505 23.07 0.829 0.829
5.826 21.368 0.713 0.713
5.759 21.386 0.713 0.713
5.69 21.397 0.713 0.713
5.622 21.41 0.712 0.712
5.588 21.419 0.712 0.712
5.517 21.423 0.712 0.712
5.449 21.438 0.712 0.712
5.378 21.44 0.712 0.712
5.309 21.449 0.712 0.712
5.241 21.464 0.711 0.711
5.171 21.47 0.711 0.711
5.135 21.469 0.711 0.711
4.826 25.439 0.798 0.798
4.749 25.468 0.798 0.798
4.667 25.473 0.798 0.798
4.589 25.5 0.798 0.798
4.503 25.478 0.798 0.798
2.258 15.555 0.566 0.566
2.206 15.54 0.566 0.566
2.159 15.563 0.566 0.566
2.113 15.587 0.567 0.567
-3.231 20.934 0.691 0.691
-3.271 20.969 0.692 0.692
-3.349 21.039 0.693 0.693
-3.448 21.226 0.698 0.698
-3.521 21.255 0.699 0.699
-3.596 21.291 0.7 0.7
-3.638 21.136 0.697 0.697
-3.73 21.268 0.7 0.7
-3.748 21.177 0.698 0.698
-3.833 21.27 0.701 0.701
-15.445 75.139 1.955 1.955
-3.484 15.79 0.577 0.577
-3.501 15.747 0.576 0.576
-3.543 15.705 0.575 0.575
-3.574 15.616 0.573 0.573
-3.594 15.478 0.57 0.57
-3.681 15.628 0.574 0.574
-17.601 70.833 1.871 1.871
-17.737 70.432 1.863 1.863
-19.474 72.5 1.918 1.918
-23.404 63.735 1.755 1.755
-14.15 38.194 1.136 1.136
-14.858 38.607 1.15 1.15
-14.833 38.184 1.141 1.141
-14.827 37.993 1.137 1.137
-14.857 37.721 1.132 1.132
-14.927 37.551 1.129 1.129
-15.008 37.412 1.126 1.126
-24.286 59.416 1.67 1.67
-24.52 59.455 1.673 1.673
-24.742 59.461 1.675 1.675
-24.812 59.367 1.674 1.674
-24.872 58.99 1.666 1.666
-24.984 58.739 1.662 1.662
-25.198 58.73 1.664 1.664
-25.341 55.887 1.606 1.606
-25.41 55.575 1.6 1.6
-25.499 55.309 1.595 1.595
-25.697 55.282 1.597 1.597
-26.445 56.656 1.632 1.632
-25.604 53.969 1.569 1.569
-25.658 53.648 1.563 1.563
-25.719 53.344 1.557 1.557
-25.767 53.019 1.551 1.551
-25.828 52.722 1.545 1.545
-25.988 52.63 1.545 1.545
-26.152 52.752 1.549 1.549
-26.359 52.754 1.551 1.551
-27.031 52.846 1.56 1.56
-15.806 29.207 0.965 0.965
-15.938 29.233 0.967 0.967
-16.05 29.219 0.968 0.968
-15.855 28.756 0.956 0.956
-15.695 28.257 0.944 0.944
-15.747 28.142 0.943 0.943
-15.965 28.322 0.949 0.949
-15.952 28.093 0.944 0.944
-16.01 27.99 0.943 0.943
-16.093 27.931 0.942 0.942
-31.993 52.949 1.617 1.617
-32.158 53.034 1.621 1.621
-32.406 53.066 1.624 1.624
-26.345 41.665 1.331 1.331
-26.518 41.649 1.333 1.333
-28.72 44.948 1.423 1.423
-26.305 37.563 1.253 1.253
-26.386 37.553 1.254 1.254
-26.905 35.962 1.231 1.231
-27.573 36.613 1.252 1.252
-26.767 35.084 1.213 1.213
-26.759 34.959 1.211 1.211
-25.574 33.197 1.163 1.163
-25.597 33.012 1.16 1.16
-25.59 32.79 1.156 1.156
-26.059 32.227 1.152 1.152
-26.729 32.014 1.158 1.158
-26.582 31.636 1.149 1.149
-26.339 31.247 1.139 1.139
-31.913 31.922 1.236 1.236
-31.424 31.237 1.217 1.217
-31.682 31.295 1.223 1.223
-29.261 27.06 1.116 1.116
-28.953 26.607 1.104 1.104
-29.297 26.838 1.113 1.113
-28.498 25.78 1.084 1.084
-28.522 25.639 1.082 1.082
-15.335 12.872 0.664 0.664
-15.171 12.653 0.658 0.658
-15.176 12.577 0.657 0.657
-15.203 12.52 0.657 0.657
-15.215 12.449 0.656 0.656
-15.213 12.368 0.655 0.655
-15.223 12.297 0.654 0.654
-14.985 12.066 0.646 0.646
-15.315 12.252 0.655 0.655
-15.508 12.327 0.659 0.659
-35.608 26.395 1.218 1.218
-35.686 26.28 1.218 1.218
-32.767 24.053 1.134 1.134
-32.474 23.682 1.124 1.124
-32.021 20.973 1.08 1.08
-33.193 19.994 1.091 1.091
-33.278 19.903 1.091 1.091
-39.197 22.939 1.243 1.243
-39.269 22.899 1.244 1.244
-39.194 22.69 1.24 1.24
-39.22 22.541 1.239 1.239
-39.331 22.441 1.24 1.24
-31.23 17.566 1.024 1.024
-50.415 27.923 1.521 1.521
-33.196 18.328 1.072 1.072
-50.225 27.51 1.513 1.513
-50.191 27.287 1.509 1.509
-54.918 28.636 1.619 1.619
-51.18 26.485 1.521 1.521
-51.196 26.289 1.519 1.519
-55.323 28.187 1.622 1.622
-35.54 17.628 1.112 1.112
-54.16 24.249 1.56 1.56
-54.156 24.146 1.559 1.559
-53.831 23.798 1.549 1.549
-54.429 23.859 1.562 1.562
-58.027 25.217 1.649 1.649
-58.007 24.992 1.647 1.647
-42.398 16.947 1.248 1.248
-42.392 16.791 1.247 1.247
-42.381 16.709 1.246 1.246
-42.381 16.556 1.245 1.245
-42.381 16.402 1.243 1.243
-42.4 16.257 1.243 1.243
-42.395 16.102 1.241 1.241
-42.402 15.953 1.24 1.24
-42.407 15.803 1.239 1.239
-38.074 14.055 1.133 1.133
-38.077 13.988 1.132 1.132
-38.153 13.88 1.133 1.133
-42.409 15.275 1.235 1.235
-42.316 15.091 1.232 1.232
-69.221 23.936 1.876 1.876
-69.176 23.799 1.874 1.874
-69.152 23.548 1.872 1.872
-69.142 23.303 1.87 1.87
-69.154 23.065 1.869 1.869
-69.139 22.819 1.867 1.867
-69.153 22.583 1.865 1.865
-69.157 22.344 1.864 1.864
-69.114 22.21 1.862 1.862
-69.105 21.968 1.86 1.86
-69.117 21.733 1.858 1.858
-69.104 21.491 1.857 1.857
-69.107 21.254 1.855 1.855
-69.1 21.015 1.853 1.853
-69.091 20.775 1.852 1.852
-69.061 20.648 1.85 1.85
-69.058 20.411 1.848 1.848
-69.072 20.179 1.847 1.847
-69.064 19.941 1.846 1.846
-69.059 19.705 1.844 1.844
-69.069 19.474 1.843 1.843
-69.07 19.24 1.841 1.841
-69.066 19.005 1.84 1.84
-69.034 18.88 1.838 1.838
-69.022 18.644 1.837 1.837
-69.034 18.414 1.836 1.836
-69.025 18.18 1.834 1.834
-69.042 17.953 1.833 1.833
-69.03 17.718 1.831 1.831
-69.019 17.485 1.83 1.83
-69.01 17.367 1.829 1.829
-69.004 17.135 1.828 1.828
-69.003 16.905 1.826 1.826
-68.986 16.671 1.825 1.825
-68.999 16.445 1.824 1.824
-68.998 16.216 1.823 1.823
-68.996 15.987 1.821 1.821
-68.997 15.759 1.82 1.82
-68.957 15.636 1.819 1.819
-68.967 15.411 1.818 1.818
-68.972 15.184 1.817 1.817
-68.974 14.958 1.816 1.816
-68.968 14.73 1.815 1.815
-68.967 14.503 1.813 1.813
-47.515 -9.68 1.313 1.313
-67.78 -14.375 1.786 1.786
-57.754 -14.25 1.563 1.563
-57.422 -14.36 1.556 1.556
-57.373 -14.539 1.556 1.556
-57.267 -16.638 1.567 1.567
-57.241 -16.825 1.567 1.567
-56.291 -17.221 1.549 1.549
-56.596 -17.509 1.558 1.558
-56.405 -17.644 1.554 1.554
-56.283 -17.8 1.553 1.553
-56.901 -18.193 1.569 1.569
-56.904 -18.391 1.57 1.57
-56.788 -18.452 1.568 1.568
-57.138 -18.764 1.578 1.578
-56.53 -18.762 1.565 1.565
-62.783 -21.059 1.717 1.717
-45.238 -15.325 1.296 1.296
-45.164 -15.458 1.296 1.296
-44.95 -15.543 1.292 1.292
-44.932 -15.694 1.292 1.292
-39.863 -15.055 1.179 1.179
-39.759 -15.159 1.177 1.177
-39.724 -15.289 1.178 1.178
-39.821 -15.47 1.181 1.181
-39.84 -15.621 1.183 1.183
-39.777 -15.741 1.183 1.183
-49.815 -19.811 1.429 1.429
-49.302 -19.786 1.418 1.418
-49.451 -20.027 1.423 1.423
-49.66 -20.476 1.432 1.432
-62.55 -26.259 1.753 1.753
-38.976 -16.496 1.172 1.172
-39.025 -16.589 1.174 1.174
17.507 -9.969 0.667 0.667
17.511 -9.898 0.666 0.666
17.508 -9.825 0.666 0.666
17.625 -9.817 0.668 0.668
17.607 -9.771 0.667 0.667
17.641 -9.718 0.667 0.667
17.723 -9.69 0.668 0.668
17.785 -9.652 0.669 0.669
19.947 -10.539 0.722 0.722
19.836 -10.402 0.718 0.718
38.122 -17.293 1.162 1.162
38.543 -17.411 1.172 1.172
38.8 -17.38 1.177 1.177
39.205 -17.414 1.185 1.185
39.41 -17.357 1.189 1.189
39.622 -17.302 1.193 1.193
40.047 -17.337 1.202 1.202
24.461 -10.51 0.815 0.815
24.468 -10.467 0.814 0.814
24.917 -10.474 0.824 0.824
50.628 -18.5 1.436 1.436
50.942 -18.433 1.442 1.442
51.854 -18.578 1.463 1.463
46.653 -13.241 1.313 1.313
46.04 -12.834 1.297 1.297
50.624 -13.256 1.4 1.4
50.608 -13.167 1.399 1.399
53.093 -13.102 1.454 1.454
53.017 -12.907 1.451 1.451
53.075 -12.744 1.451 1.451
53.138 -12.671 1.452 1.452
79.29 9.345 1.422 1.422
73.209 9.915 1.332 1.332
73.247 10.155 1.333 1.333
73.278 10.394 1.334 1.334
73.302 10.632 1.334 1.334
73.33 10.872 1.335 1.335
73.38 10.997 1.336 1.336
73.402 11.236 1.337 1.337
69.008 10.787 1.27 1.27
73.474 11.72 1.34 1.34
73.443 11.952 1.34 1.34
73.529 12.203 1.342 1.342
73.372 12.414 1.34 1.34
62.318 11.456 1.172 1.172
62.119 11.621 1.169 1.169
62.137 11.827 1.17 1.17
62.195 11.939 1.171 1.171
62.212 12.145 1.172 1.172
62.238 12.353 1.173 1.173
62.262 12.562 1.174 1.174
62.287 12.77 1.175 1.175
57.904 12.063 1.107 1.107
62.36 13.194 1.177 1.177
61.111 14.24 1.162 1.162
60.64 14.331 1.156 1.156
51.375 13.087 1.014 1.014
51.006 13.164 1.009 1.009
51.03 13.256 1.01 1.01
51.046 13.431 1.011 1.011
51.081 13.612 1.012 1.012
51.094 13.787 1.013 1.013
51.122 13.967 1.014 1.014
47.635 13.177 0.96 0.96
51.195 14.333 1.016 1.016
51.215 14.426 1.017 1.017
51.24 14.607 1.018 1.018
51.261 14.787 1.019 1.019
51.272 14.965 1.02 1.02
48.561 16.015 0.986 0.986
48.215 16.069 0.981 0.981
47.893 16.129 0.976 0.976
40.512 13.79 0.859 0.859
40.387 13.889 0.857 0.857
34.261 14.439 0.773 0.773
34.163 14.461 0.772 0.772
33.924 14.486 0.769 0.769
33.715 14.522 0.766 0.766
33.663 14.626 0.766 0.766
36.762 17.291 0.826 0.826
36.809 17.383 0.827 0.827
36.814 17.527 0.828 0.828
34.064 16.352 0.783 0.783
33.975 16.44 0.782 0.782
33.829 16.502 0.78 0.78
33.937 16.686 0.783 0.783
33.791 16.747 0.781 0.781
29.157 14.626 0.704 0.704
29.065 14.694 0.703 0.703
23.059 15.307 0.629 0.629
22.944 15.335 0.628 0.628
22.87 15.337 0.627 0.627
22.684 15.316 0.624 0.624
22.616 15.374 0.624 0.624
22.48 15.385 0.622 0.622
22.367 15.412 0.621 0.621
19.79 13.87 0.575 0.575
19.678 13.884 0.574 0.574
19.629 13.942 0.574 0.574
19.595 14.011 0.574 0.574
19.488 14.027 0.573 0.573
19.494 14.124 0.574 0.574
19.492 14.216 0.575 0.575
19.41 14.25 0.574 0.574
19.508 14.369 0.576 0.576
19.596 14.529 0.579 0.579
22.258 16.607 0.63 0.63
22.271 16.726 0.631 0.631
22.287 16.847 0.633 0.633
22.301 16.968 0.634 0.634
22.319 17.093 0.635 0.635
22.364 17.183 0.637 0.637
22.365 17.296 0.638 0.638
22.317 17.371 0.638 0.638
25.421 19.91 0.699 0.699
25.446 20.059 0.701 0.701
25.447 20.19 0.702 0.702
22.621 18.067 0.648 0.648
22.547 18.067 0.647 0.647
22.503 18.147 0.647 0.647
22.428 18.204 0.647 0.647
22.535 18.408 0.65 0.65
22.522 18.516 0.651 0.651
22.049 18.419 0.645 0.645
16.902 16.389 0.566 0.566
11.068 15.455 0.497 0.497
10.988 15.446 0.496 0.496
10.979 15.484 0.496 0.496
10.944 15.538 0.497 0.497
14.273 21.443 0.6 0.6
14.295 21.623 0.602 0.602
14.315 21.801 0.604 0.604
14.338 21.986 0.607 0.607
14.367 22.182 0.61 0.61
14.42 22.341 0.612 0.612
14.451 22.543 0.615 0.615
14.477 22.74 0.618 0.618
14.499 22.934 0.62 0.62
14.522 23.13 0.623 0.623
2.243 15.507 0.446 0.446
2.219 15.512 0.446 0.446
2.17 15.517 0.446 0.446
-3.108 20.835 0.528 0.528
-3.211 21.072 0.532 0.532
-3.278 21.072 0.532 0.532
-3.363 21.18 0.534 0.534
-3.432 21.181 0.534 0.534
-3.469 21.203 0.535 0.535
-3.542 21.23 0.535 0.535
-3.592 21.122 0.534 0.534
-3.68 21.233 0.536 0.536
-3.754 21.262 0.536 0.536
-3.857 21.457 0.539 0.539
-14.743 74.918 1.369 1.369
-14.979 74.877 1.369 1.369
-15.316 74.137 1.359 1.359
-15.385 73.884 1.356 1.356
-15.504 73.301 1.347 1.347
-3.499 15.709 0.453 0.453
-3.538 15.653 0.452 0.452
-3.572 15.578 0.451 0.451
-3.601 15.591 0.451 0.451
-3.616 15.434 0.449 0.449
-16.855 70.35 1.308 1.308
-17.182 70.732 1.315 1.315
-17.405 70.684 1.315 1.315
-18.992 72.687 1.351 1.351
-19.061 72.026 1.341 1.341
-19.379 72.307 1.347 1.347
-19.705 72.613 1.352 1.352
-20.067 73.038 1.36 1.36
-14.317 38.273 0.829 0.829
-14.558 38.55 0.835 0.835
-14.62 38.349 0.832 0.832
-14.668 38.112 0.829 0.829
-14.654 37.721 0.823 0.823
-14.761 37.647 0.823 0.823
-14.793 37.381 0.819 0.819
-14.862 37.383 0.82 0.82
-23.947 59.731 1.187 1.187
-24.034 59.409 1.183 1.183
-24.259 59.427 1.184 1.184
-24.486 59.447 1.186 1.186
-24.716 59.475 1.187 1.187
-24.831 59.226 1.185 1.185
-24.808 58.912 1.18 1.18
-24.949 58.729 1.178 1.178
-25.15 58.691 1.179 1.179
-25.178 58.248 1.173 1.173
-25.049 57.453 1.161 1.161
-25.279 55.811 1.14 1.14
-25.332 55.464 1.135 1.135
-25.461 55.286 1.134 1.134
-25.665 55.271 1.135 1.135
-26.504 56.614 1.159 1.159
-25.624 53.847 1.115 1.115
-25.593 53.565 1.111 1.111
-25.652 53.257 1.107 1.107
-25.709 52.95 1.103 1.103
-25.788 52.691 1.1 1.1
-25.971 52.643 1.101 1.101
-26.209 52.708 1.103 1.103
-27.008 52.85 1.111 1.111
-15.674 28.512 0.703 0.703
-15.715 28.375 0.701 0.701
-16.279 29.287 0.717 0.717
-15.721 28.072 0.697 0.697
-15.753 27.923 0.695 0.695
-15.806 27.813 0.694 0.694
-16.062 28.058 0.7 0.7
-16.206 28.104 0.701 0.701
-16.342 28.136 0.703 0.703
-24.981 42.574 0.959 0.959
-31.982 52.982 1.149 1.149
-32.226 53.009 1.151 1.151
-32.47 53.034 1.154 1.154
-33.305 53.828 1.171 1.171
-33.552 53.849 1.173 1.173
-28.067 44.105 1.003 1.003
-35.755 55.811 1.216 1.216
-28.75 44.558 1.014 1.014
-35.005 54.075 1.188 1.188
-28.378 43.528 0.998 0.998
-26.64 37.423 0.907 0.907
-26.818 37.424 0.908 0.908
-39.788 54.814 1.238 1.238
-40.044 54.803 1.24 1.24
-40.731 55.015 1.249 1.249
-30.396 40.91 0.983 0.983
-28.952 38.709 0.943 0.943
-27.452 36.462 0.902 0.902
-41.981 55.42 1.265 1.265
-26.589 34.857 0.875 0.875
-26.805 34.911 0.877 0.877
-25.792 32.206 0.835 0.835
-26.143 31.512 0.831 0.831
-26.251 31.441 0.831 0.831
-34.51 35.52 0.961 0.961
-34.079 34.857 0.949 0.949
-31.265 30.889 0.876 0.876
-31.224 30.655 0.873 0.873
-31.307 30.544 0.873 0.873
-29.133 26.185 0.804 0.804
-29.058 25.626 0.797 0.797
-29.089 25.491 0.796 0.796
-29.134 25.128 0.793 0.793
-29.026 24.876 0.789 0.789
-29.116 24.795 0.789 0.789
-29.136 24.655 0.788 0.788
-29.684 24.96 0.798 0.798
-33.184 27.729 0.866 0.866
-15.361 12.736 0.511 0.511
-15.199 12.561 0.508 0.508
-15.215 12.494 0.507 0.507
-15.189 12.393 0.506 0.506
-15.332 12.43 0.508 0.508
-15.466 12.458 0.51 0.51
-33.008 24.631 0.834 0.834
-32.251 23.751 0.817 0.817
-32.103 23.487 0.813 0.813
-32.083 23.318 0.811 0.811
-32.161 23.298 0.812 0.812
-32.363 23.289 0.814 0.814
-30.813 21.734 0.781 0.781
-31.21 21.722 0.786 0.786
-31.325 21.439 0.785 0.785
-52.983 32.957 1.157 1.157
-37.671 21.734 0.869 0.869
-38.927 22.378 0.891 0.891
-31.192 17.537 0.752 0.752
-31.273 17.453 0.753 0.753
-33.144 18.363 0.784 0.784
-33.193 18.254 0.784 0.784
-50.142 27.385 1.077 1.077
-50.25 27.342 1.078 1.078
-51.416 27.767 1.097 1.097
-50.902 26.669 1.082 1.082
-33.497 17.406 0.782 0.782
-33.476 17.328 0.781 0.781
-33.479 17.197 0.78 0.78
-33.469 17.059 0.779 0.779
-33.476 16.93 0.778 0.778
-33.472 16.796 0.777 0.777
-33.476 16.667 0.777 0.777
-33.473 16.534 0.776 0.776
-33.459 16.462 0.775 0.775
-33.459 16.331 0.774 0.774
-33.45 16.197 0.773 0.773
-33.454 16.069 0.772 0.772
-33.456 15.941 0.771 0.771
-33.455 15.812 0.771 0.771
-33.448 15.68 0.77 0.77
-33.472 15.563 0.769 0.769
-33.731 15.619 0.773 0.773
-54.032 24.217 1.108 1.108
-54.234 24.103 1.111 1.111
-54.335 23.944 1.111 1.111
-56.802 24.501 1.149 1.149
-56.963 24.359 1.15 1.15
-69.043 29.275 1.349 1.349
-69.056 29.024 1.347 1.347
-69.062 28.772 1.346 1.346
-69.054 28.514 1.344 1.344
-69.058 28.389 1.344 1.344
-42.312 17.073 0.902 0.902
-42.363 16.939 0.902 0.902
-42.364 16.785 0.901 0.901
-42.355 16.628 0.9 0.9
-42.374 16.482 0.899 0.899
-42.351 16.397 0.899 0.899
-42.348 16.243 0.898 0.898
-42.369 16.098 0.897 0.897
-42.371 15.947 0.896 0.896
-42.378 15.797 0.896 0.896
-38.005 14.028 0.824 0.824
-38.062 13.914 0.824 0.824
-42.333 15.403 0.893 0.893
-42.359 15.262 0.893 0.893
-42.271 15.08 0.89 0.89
-69.058 24.41 1.322 1.322
-69.063 24.167 1.321 1.321
-69.078 23.929 1.32 1.32
-69.087 23.689 1.319 1.319
-69.054 23.557 1.318 1.318
-69.059 23.317 1.317 1.317
-69.068 23.078 1.316 1.316
-69.081 22.842 1.315 1.315
-69.105 22.609 1.314 1.314
-69.111 22.371 1.313 1.313
-69.118 22.133 1.312 1.312
-69.124 21.896 1.311 1.311
-69.099 21.769 1.31 1.31
-69.11 21.534 1.309 1.309
-69.124 21.3 1.308 1.308
-69.126 21.063 1.307 1.307
-69.134 20.828 1.306 1.306
-69.145 20.595 1.305 1.305
-69.146 20.359 1.304 1.304
-69.13 20.236 1.303 1.303
-69.134 20.002 1.303 1.303
-69.15 19.771 1.302 1.302
-69.131 19.531 1.301 1.301
-69.152 19.303 1.3 1.3
-69.16 19.071 1.299 1.299
-69.166 18.839 1.298 1.298
-69.176 18.608 1.297 1.297
-69.148 18.484 1.297 1.297
-69.153 18.253 1.296 1.296
-69.169 18.025 1.295 1.295
-69.171 17.794 1.294 1.294
-69.171 17.562 1.293 1.293
-69.173 17.332 1.293 1.293
-69.185 17.104 1.292 1.292
-69.182 16.988 1.291 1.291
-69.189 16.759 1.291 1.291
-69.181 16.527 1.29 1.29
-69.217 16.306 1.29 1.29
-47.57 -9.526 0.946 0.946
-47.532 -9.674 0.946 0.946
-68.101 -14.518 1.267 1.267
-68.501 -14.716 1.274 1.274
-68.876 -15.023 1.28 1.28
-68.696 -15.21 1.278 1.278
-68.95 -15.493 1.283 1.283
-59.031 -13.658 1.129 1.129
-58.932 -13.831 1.129 1.129
-57.824 -14.436 1.114 1.114
-57.988 -14.671 1.118 1.118
-56.954 -14.887 1.103 1.103
-57.313 -15.173 1.11 1.11
-56.376 -15.877 1.099 1.099
17.615 -9.854 0.515 0.515
17.666 -9.81 0.515 0.515
19.969 -10.645 0.552 0.552
19.962 -10.561 0.551 0.551
19.984 -10.492 0.551 0.551
19.923 -10.42 0.55 0.55
20.3 -10.095 0.553 0.553
39.19 -17.483 0.861 0.861
39.274 -17.447 0.861 0.861
39.501 -17.399 0.864 0.864
39.839 -17.399 0.869 0.869
40.363 -17.478 0.877 0.877
51.176 -18.717 1.037 1.037
51.622 -18.697 1.043 1.043
46.716 -13.269 0.946 0.946
46.284 -12.989 0.939 0.939
46.071 -12.851 0.935 0.935
76.428 -20.82 1.413 1.413
50.763 -13.306 1.006 1.006
50.676 -13.114 1.004 1.004
53.167 -13.315 1.041 1.041
53.428 -13.202 1.045 1.045
53.13 -12.951 1.04 1.04
53.071 -12.76 1.038 1.038
53.36 -12.653 1.042 1.042
53.255 -12.54 1.04 1.04
79.57 7.89 1.015 1.015
78.84 8.569 1.008 1.008
73.216 10.292 0.954 0.954
73.273 10.535 0.955 0.955
73.311 10.775 0.956 0.956
73.338 11.015 0.957 0.957
73.38 11.257 0.957 0.957
69.001 10.695 0.913 0.913
73.481 11.864 0.959 0.959
73.536 12.11 0.96 0.96
73.381 12.321 0.959 0.959
62.074 11.525 0.845 0.845
62.106 11.733 0.846 0.846
62.138 11.941 0.847 0.847
62.153 12.147 0.847 0.847
62.197 12.358 0.848 0.848
62.238 12.468 0.849 0.849
62.273 12.679 0.849 0.849
62.288 12.886 0.85 0.85
57.813 12.148 0.804 0.804
62.343 13.306 0.851 0.851
61.162 14.163 0.842 0.842
60.695 14.256 0.837 0.837
51.592 13.058 0.745 0.745
51.065 13.095 0.74 0.74
50.981 13.245 0.739 0.739
51.005 13.422 0.74 0.74
51.053 13.521 0.741 0.741
51.061 13.695 0.741 0.741
51.093 13.875 0.742 0.742
51.113 14.053 0.743 0.743
51.173 14.417 0.744 0.744
51.212 14.601 0.745 0.745
51.243 14.697 0.746 0.746
51.254 14.875 0.746 0.746
48.29 16.094 0.722 0.722
47.963 16.069 0.718 0.718
47.687 16.143 0.716 0.716
42.882 16.109 0.67 0.67
42.594 16.153 0.668 0.668
42.34 16.133 0.665 0.665
42.095 16.191 0.663 0.663
36.729 17.193 0.617 0.617
36.749 17.344 0.618 0.618
36.756 17.488 0.619 0.619
34.106 16.357 0.589 0.589
33.976 16.361 0.588 0.588
33.952 16.48 0.589 0.589
33.964 16.619 0.589 0.589
33.975 16.756 0.59 0.59
29.088 14.684 0.536 0.536
29.693 18.046 0.558 0.558
29.537 18.078 0.557 0.557
29.352 18.092 0.556 0.556
29.207 18.129 0.555 0.555
29.079 18.113 0.553 0.553
28.928 18.145 0.552 0.552
19.79 13.929 0.452 0.452
19.67 13.891 0.451 0.451
19.594 13.93 0.45 0.45
19.576 14.01 0.451 0.451
19.49 14.041 0.45 0.45
19.457 14.11 0.45 0.45
19.464 14.209 0.451 0.451
19.453 14.295 0.451 0.451
19.461 14.395 0.452 0.452
22.25 16.517 0.487 0.487
22.246 16.623 0.488 0.488
22.254 16.738 0.489 0.489
22.265 16.857 0.489 0.489
22.297 16.991 0.491 0.491
22.3 17.105 0.491 0.491
22.321 17.232 0.492 0.492
22.357 17.316 0.493 0.493
22.37 17.439 0.494 0.494
25.409 19.942 0.534 0.534
25.425 20.084 0.535 0.535
22.727 18.065 0.501 0.501
22.353 17.998 0.497 0.497
22.432 18.178 0.499 0.499
22.454 18.255 0.5 0.5
22.442 18.362 0.5 0.5
22.403 18.448 0.5 0.5
21.986 18.22 0.496 0.496
22.136 18.462 0.499 0.499
21.961 18.434 0.497 0.497
10.993 15.447 0.399 0.399
10.966 15.461 0.399 0.399
10.919 15.497 0.399 0.399
14.256 21.444 0.467 0.467
14.279 21.626 0.469 0.469
14.302 21.81 0.471 0.471
14.331 22.005 0.473 0.473
14.349 22.185 0.474 0.474
14.416 22.365 0.476 0.476
14.44 22.559 0.478 0.478
14.468 22.759 0.48 0.48
14.483 22.942 0.481 0.481
14.518 23.158 0.483 0.483
7.675 19.595 0.42 0.42
5.86 21.339 0.431 0.431
5.788 21.338 0.431 0.431
5.718 21.346 0.431 0.431
5.652 21.368 0.431 0.431
5.581 21.372 0.43 0.43
5.512 21.382 0.43 0.43
5.48 21.394 0.43 0.43
5.411 21.408 0.43 0.43
5.341 21.413 0.43 0.43
5.275 21.433 0.43 0.43
5.206 21.442 0.43 0.43
5.134 21.443 0.43 0.43
5.067 21.459 0.43 0.43
2.234 15.537 0.366 0.366
2.183 15.526 0.366 0.366
2.133 15.523 0.366 0.366
-3.131 20.969 0.421 0.421
-3.22 21.115 0.423 0.423
-3.282 21.075 0.423 0.423
-3.356 21.114 0.423 0.423
-3.386 21.085 0.423 0.423
-3.474 21.21 0.424 0.424
-3.543 21.211 0.425 0.425
-3.61 21.204 0.425 0.425
-3.675 21.184 0.425 0.425
-3.757 21.257 0.425 0.425
-3.873 21.515 0.428 0.428
-15.18 73.354 0.964 0.964
-15.581 72.978 0.961 0.961
-15.761 72.703 0.959 0.959
-3.535 15.688 0.37 0.37
-3.548 15.632 0.369 0.369
-3.594 15.607 0.369 0.369
-3.644 15.599 0.369 0.369
-3.697 15.603 0.369 0.369
-17.195 71.177 0.947 0.947
-19.508 72.241 0.963 0.963
-19.704 72.065 0.962 0.962
-14.489 38.213 0.62 0.62
-14.498 37.876 0.617 0.617
-14.569 37.707 0.616 0.616
-14.639 37.538 0.614 0.614
-14.672 37.276 0.612 0.612
-14.711 37.033 0.61 0.61
-23.893 59.832 0.858 0.858
-24.166 59.429 0.855 0.855
-24.395 59.457 0.857 0.857
-24.625 59.483 0.858 0.858
-24.802 59.383 0.857 0.857
-24.864 59.01 0.854 0.854
-24.866 58.758 0.852 0.852
-25.082 58.751 0.853 0.853
-25.085 57.259 0.839 0.839
-25.239 55.932 0.827 0.827
-25.3 55.599 0.824 0.824
-25.393 55.343 0.822 0.822
-25.505 55.129 0.821 0.821
-25.561 54.799 0.818 0.818
-25.616 54.47 0.815 0.815
-25.592 53.977 0.811 0.811
-25.564 53.701 0.808 0.808
-25.623 53.391 0.806 0.806
-25.672 53.067 0.803 0.803
-25.746 52.796 0.801 0.801
-25.891 52.672 0.8 0.8
-15.512 28.362 0.534 0.534
-15.785 28.647 0.538 0.538
-15.49 27.905 0.53 0.53
-15.626 28.045 0.532 0.532
-15.803 28.154 0.533 0.533
-16.276 28.783 0.541 0.541
-16.466 28.907 0.543 0.543
-32.307 55.048 0.852 0.852
-33.171 53.775 0.846 0.846
-33.446 53.842 0.848 0.848
-35.708 55.901 0.877 0.877
-34.855 54.191 0.858 0.858
-28.221 43.735 0.733 0.733
-28.322 43.59 0.732 0.732
-26.332 38.257 0.677 0.677
-26.588 38.37 0.679 0.679
-26.818 36.818 0.667 0.667
-27.103 36.964 0.67 0.67
-40.51 54.866 0.896 0.896
-28.92 38.926 0.697 0.697
-41.632 55.469 0.908 0.908
-29.789 39.443 0.707 0.707
-42.228 55.532 0.912 0.912
-27.453 35.882 0.664 0.664
-26.157 32.054 0.625 0.625
-26.136 31.823 0.623 0.623
-27.78 32.97 0.643 0.643
-26.43 30.101 0.612 0.612
-26.367 29.84 0.61 0.61
-26.21 29.476 0.606 0.606
-26.375 29.568 0.608 0.608
-26.388 29.395 0.606 0.606
-31.953 32.585 0.668 0.668
-34.027 33.837 0.692 0.692
-33.999 33.703 0.691 0.691
-31.258 30.795 0.651 0.651
-32.12 31.445 0.661 0.661
-29.051 26.292 0.603 0.603
-29.04 26.2 0.602 0.602
-29.146 26.13 0.603 0.603
-29.286 26.09 0.604 0.604
-36.196 31.832 0.694 0.694
-28.966 25.319 0.596 0.596
-15.105 13.095 0.409 0.409
-30.751 26.454 0.617 0.617
-15.146 12.965 0.409 0.409
-29.304 24.893 0.596 0.596
-29.344 24.769 0.595 0.595
-33.409 28.016 0.648 0.648
-31.454 26.127 0.62 0.62
-15.431 12.672 0.409 0.409
-15.571 12.705 0.41 0.41
-32.035 23.84 0.611 0.611
-32.058 23.701 0.61 0.61
-32.115 23.587 0.61 0.61
-32.289 23.559 0.611 0.611
-32.082 23.255 0.608 0.608
-31.981 23.105 0.606 0.606
-31.256 21.843 0.593 0.593
-31.132 21.611 0.59 0.59
-32.446 19.975 0.592 0.592
-32.433 19.687 0.591 0.591
-32.572 19.631 0.592 0.592
-38.252 21.998 0.653 0.653
-31.197 17.622 0.569 0.569
-31.311 17.427 0.569 0.569
-33.171 18.325 0.59 0.59
-50.48 27.665 0.789 0.789
-50.545 27.494 0.789 0.789
-50.516 27.376 0.788 0.788
-50.486 26.951 0.785 0.785
-50.388 26.696 0.783 0.783
-33.535 17.374 0.589 0.589
-33.552 17.249 0.588 0.588
-33.52 17.166 0.588 0.588
-33.522 17.035 0.587 0.587
-33.529 16.906 0.587 0.587
-33.516 16.767 0.586 0.586
-33.518 16.637 0.585 0.585
-33.527 16.511 0.585 0.585
-33.538 16.385 0.584 0.584
-33.513 16.308 0.584 0.584
-33.506 16.175 0.583 0.583
-33.524 16.054 0.583 0.583
-33.528 15.926 0.582 0.582
-33.476 15.773 0.581 0.581
-33.455 15.635 0.58 0.58
-33.439 15.5 0.58 0.58
-33.603 15.511 0.581 0.581
-53.609 24.322 0.802 0.802
-53.742 24.179 0.803 0.803
-53.991 24.088 0.805 0.805
-58.13 25.495 0.849 0.849
-58.252 25.44 0.849 0.849
-58.486 25.323 0.851 0.851
-42.347 17.016 0.668 0.668
-42.378 16.874 0.668 0.668
-42.388 16.724 0.668 0.668
-42.397 16.574 0.667 0.667
-42.399 16.421 0.667 0.667
-42.376 16.336 0.666 0.666
-42.375 16.182 0.666 0.666
-42.414 16.045 0.665 0.665
-42.378 15.879 0.665 0.665
-38.045 14.123 0.617 0.617
-38.041 13.985 0.617 0.617
-38.122 13.879 0.617 0.617
-42.36 15.344 0.662 0.662
-42.412 15.212 0.663 0.663
-42.52 15.1 0.663 0.663
-47.56 -9.599 0.697 0.697
-68.82 -14.805 0.918 0.918
-68.656 -14.995 0.917 0.917
-68.697 -15.117 0.918 0.918
-69.629 -15.552 0.928 0.928
-59.132 -13.594 0.82 0.82
-59.167 -13.798 0.821 0.821
-57.637 -14.303 0.807 0.807
19.981 -10.724 0.436 0.436
19.931 -10.617 0.435 0.435
19.927 -10.535 0.435 0.435
19.971 -10.478 0.435 0.435
20.03 -10.429 0.435 0.435
39.096 -17.524 0.64 0.64
39.244 -17.442 0.641 0.641
39.553 -17.431 0.644 0.644
39.669 -17.407 0.645 0.645
25.766 -9.527 0.485 0.485
51.485 -18.826 0.761 0.761
52.05 -18.94 0.767 0.767
52.727 -18.998 0.774 0.774
53.391 -19.048 0.78 0.78
46.601 -13.16 0.697 0.697
46.072 -12.854 0.691 0.691
46.484 -12.812 0.694 0.694
51.03 -13.46 0.74 0.74
50.646 -13.189 0.736 0.736
53.058 -13.283 0.76 0.76
53.397 -13.279 0.763 0.763
53.351 -13.09 0.762 0.762
53.151 -12.864 0.76 0.76
53.201 -12.699 0.76 0.76
53.339 -12.555 0.761 0.761
53.349 -12.381 0.761 0.761
53.46 -12.23 0.761 0.761
78.769 7.985 0.456 0.456
79.555 8.317 0.459 0.459
70.62 9.298 0.431 0.431
70.794 9.887 0.432 0.432
73.255 10.465 0.44 0.44
73.27 10.702 0.44 0.44
73.311 10.943 0.44 0.44
73.335 11.182 0.441 0.441
68.952 10.737 0.427 0.427
73.406 11.665 0.441 0.441
73.47 11.794 0.441 0.441
73.48 12.032 0.442 0.442
73.29 12.238 0.441 0.441
62.189 12.509 0.407 0.407
62.23 12.619 0.407 0.407
62.285 12.834 0.407 0.407
57.792 12.1 0.393 0.393
62.34 13.254 0.408 0.408
61.541 13.997 0.406 0.406
61.022 14.081 0.404 0.404
60.613 14.187 0.403 0.403
50.97 13.038 0.373 0.373
50.968 13.208 0.373 0.373
50.98 13.382 0.373 0.373
51.007 13.56 0.373 0.373
51.015 13.734 0.373 0.373
26.18 7.862 0.293 0.293
43.155 16.034 0.352 0.352
42.803 16.056 0.351 0.351
42.473 16.085 0.35 0.35
42.301 16.172 0.35 0.35
34.034 16.182 0.326 0.326
33.998 16.296 0.326 0.326
33.914 16.387 0.326 0.326
33.938 16.464 0.326 0.326
33.953 16.603 0.326 0.326
33.971 16.744 0.326 0.326
34.288 18.677 0.33 0.33
34.44 19.682 0.332 0.332
29.699 17.917 0.316 0.316
29.591 17.979 0.316 0.316
29.436 18.012 0.316 0.316
29.273 18.039 0.315 0.315
29.118 18.07 0.315 0.315
28.993 18.056 0.314 0.314
28.853 18.095 0.314 0.314
19.781 13.846 0.283 0.283
19.706 13.886 0.283 0.283
19.576 13.887 0.282 0.282
19.509 13.932 0.282 0.282
19.513 13.981 0.282 0.282
19.489 14.057 0.283 0.283
19.401 14.086 0.282 0.282
19.39 14.172 0.283 0.283
19.415 14.283 0.283 0.283
19.435 14.392 0.283 0.283
19.505 14.539 0.283 0.283
22.214 16.663 0.294 0.294
22.254 16.747 0.295 0.295
22.271 16.87 0.295 0.295
22.282 16.988 0.295 0.295
22.297 17.11 0.295 0.295
22.311 17.233 0.296 0.296
22.317 17.349 0.296 0.296
22.33 17.472 0.296 0.296
22.472 17.641 0.297 0.297
22.492 17.771 0.297 0.297
22.511 18.016 0.298 0.298
22.45 18.083 0.298 0.298
22.465 18.212 0.298 0.298
22.501 18.3 0.298 0.298
22.519 18.432 0.299 0.299
17.017 15.971 0.28 0.28
16.719 15.89 0.28 0.28
16.583 15.861 0.279 0.279
16.533 15.913 0.279 0.279
16.666 16.141 0.28 0.28
16.474 16.006 0.279 0.279
16.809 17.011 0.282 0.282
13.959 16.183 0.274 0.274
10.923 15.386 0.266 0.266
10.896 15.452 0.266 0.266
14.281 21.501 0.288 0.288
14.3 21.677 0.289 0.289
14.326 21.864 0.289 0.289
14.35 22.051 0.29 0.29
14.366 22.229 0.29 0.29
14.396 22.429 0.291 0.291
14.459 22.604 0.291 0.291
14.482 22.798 0.292 0.292
14.506 22.994 0.293 0.293
7.67 19.542 0.273 0.273
7.622 19.511 0.273 0.273
7.557 19.524 0.273 0.273
7.502 19.564 0.273 0.273
5.86 21.271 0.276 0.276
5.79 21.276 0.276 0.276
5.756 21.285 0.276 0.276
5.69 21.306 0.276 0.276
5.619 21.309 0.276 0.276
5.549 21.313 0.276 0.276
5.48 21.322 0.276 0.276
5.414 21.345 0.276 0.276
5.342 21.341 0.276 0.276
5.31 21.357 0.276 0.276
5.237 21.35 0.276 0.276
5.175 21.388 0.276 0.276
5.101 21.373 0.276 0.276
2.224 15.478 0.256 0.256
2.172 15.463 0.256 0.256
2.128 15.504 0.256 0.256
-3.213 20.95 0.274 0.274
-3.283 20.966 0.274 0.274
-3.347 20.942 0.274 0.274
-3.443 21.116 0.274 0.274
-3.488 20.979 0.274 0.274
-3.521 20.974 0.274 0.274
-3.597 21.024 0.274 0.274
-3.692 21.176 0.275 0.275
-3.765 21.202 0.275 0.275
-3.878 21.45 0.276 0.276
-14.827 74.959 0.448 0.448
-14.772 73.464 0.443 0.443
-15.006 73.431 0.443 0.443
-15.293 73.658 0.444 0.444
-3.484 15.568 0.257 0.257
-3.528 15.536 0.257 0.257
-3.581 15.546 0.257 0.257
-3.63 15.535 0.257 0.257
-3.739 15.891 0.258 0.258
-17.855 71.244 0.438 0.438
-18.14 71.428 0.439 0.439
-19.214 72.314 0.443 0.443
-21.701 61.07 0.411 0.411
-20.214 55.222 0.392 0.392
-14.789 38.314 0.336 0.336
-14.391 36.935 0.332 0.332
-14.498 36.867 0.332 0.332
-24.094 59.388 0.409 0.409
-24.323 59.415 0.409 0.409
-24.552 59.442 0.41 0.41
-24.7 59.27 0.409 0.409
-24.757 58.886 0.408 0.408
-24.82 58.519 0.407 0.407
-24.89 58.176 0.406 0.406
-24.861 57.856 0.405 0.405
-24.922 57.498 0.404 0.404
-24.986 57.154 0.403 0.403
-25.041 56.793 0.402 0.402
-25.108 56.462 0.402 0.402
-25.169 56.124 0.401 0.401
-25.229 55.788 0.4 0.4
-25.21 55.513 0.399 0.399
-25.259 55.161 0.398 0.398
-25.322 54.841 0.397 0.397
-25.38 54.517 0.396 0.396
-25.438 54.196 0.396 0.396
-25.496 53.877 0.395 0.395
-25.553 53.562 0.394 0.394
-25.608 53.245 0.393 0.393
-25.58 52.974 0.392 0.392
-25.651 52.698 0.392 0.392
-25.813 52.61 0.392 0.392
-15.543 28.208 0.308 0.308
-16.057 28.926 0.311 0.311
-32.194 54.955 0.408 0.408
-32.38 53.144 0.403 0.403
-27.934 43.8 0.371 0.371
-28.238 43.971 0.372 0.372
-26.481 40.949 0.361 0.361
-28.41 43.633 0.371 0.371
-26.902 41.032 0.361 0.361
-27.051 41.119 0.362 0.362
-26.664 40.253 0.359 0.359
-25.877 38.275 0.352 0.352
-26.557 36.017 0.348 0.348
-26.53 35.745 0.347 0.347
-26.74 35.792 0.348 0.348
-26.604 35.493 0.347 0.347
-26.762 35.472 0.347 0.347
-27.194 35.81 0.349 0.349
-42.479 55.599 0.427 0.427
-27.228 32.967 0.342 0.342
-27.523 33.112 0.343 0.343
-27.555 30.715 0.337 0.337
-27.995 31.01 0.338 0.338
-33.737 33.583 0.357 0.357
-20.401 19.604 0.296 0.296
-20.535 19.608 0.296 0.296
-20.737 19.678 0.297 0.297
-20.906 19.714 0.297 0.297
-30.543 27.399 0.336 0.336
-31.076 27.702 0.338 0.338
-30.674 27.171 0.336 0.336
-29.398 25.711 0.33 0.33
-29.313 25.474 0.329 0.329
-29.403 25.391 0.329 0.329
-29.451 25.271 0.329 0.329
-29.198 24.974 0.328 0.328
-15.372 12.598 0.269 0.269
-33.244 24.595 0.337 0.337
-33.352 24.512 0.337 0.337
-32.621 20.094 0.328 0.328
-33.648 20.581 0.331 0.331
-32.693 19.575 0.327 0.327
-32.854 19.462 0.327 0.327
-32.932 19.368 0.327 0.327
-31.133 17.527 0.319 0.319
-33.038 18.397 0.326 0.326
-33.084 18.287 0.326 0.326
-50.315 27.006 0.387 0.387
-50.321 26.908 0.387 0.387
-50.386 26.739 0.387 0.387
-33.413 17.454 0.326 0.326
-33.454 17.341 0.326 0.326
-33.483 17.223 0.325 0.325
-33.487 17.093 0.325 0.325
-33.485 17.025 0.325 0.325
-33.462 16.881 0.325 0.325
-33.474 16.756 0.325 0.325
-33.48 16.627 0.325 0.325
-33.467 16.49 0.324 0.324
-33.465 16.358 0.324 0.324
-33.468 16.23 0.324 0.324
-33.446 16.154 0.324 0.324
-33.446 16.025 0.324 0.324
-33.446 15.896 0.324 0.324
-33.404 15.747 0.323 0.323
-33.388 15.611 0.323 0.323
-33.67 15.615 0.324 0.324
-33.547 15.43 0.323 0.323
-53.911 24.711 0.394 0.394
-53.92 24.51 0.394 0.394
-54.007 24.346 0.394 0.394
-42.246 17.152 0.351 0.351
-42.264 17.005 0.35 0.35
-42.269 16.853 0.35 0.35
-42.274 16.701 0.35 0.35
-42.29 16.554 0.35 0.35
-42.299 16.405 0.35 0.35
-42.295 16.25 0.35 0.35
-42.299 16.1 0.349 0.349
-37.872 14.208 0.334 0.334
-37.858 14.067 0.334 0.334
-37.902 13.948 0.334 0.334
-37.944 13.828 0.334 0.334
-38.217 13.792 0.335 0.335
-42.602 15.226 0.349 0.349
-47.668 -9.517 0.36 0.36
-47.534 -9.568 0.36 0.36
-77.292 -15.793 0.455 0.455
-77.301 -16.048 0.456 0.456
-69.169 -14.59 0.43 0.43
-68.988 -14.778 0.429 0.429
-69.08 -15.025 0.43 0.43
-68.987 -15.232 0.43 0.43
-69.143 -15.38 0.43 0.43
-59.08 -13.34 0.398 0.398
-59.022 -13.522 0.398 0.398
-58.965 -14.389 0.398 0.398
19.897 -10.662 0.278 0.278
19.883 -10.574 0.278 0.278
19.919 -10.513 0.278 0.278
20.202 -10.581 0.279 0.279
20.516 -10.461 0.279 0.279
20.521 -10.382 0.279 0.279
20.548 -10.153 0.279 0.279
20.325 -9.963 0.278 0.278
20.241 -9.843 0.278 0.278
20.236 -9.802 0.278 0.278
20.292 -9.75 0.278 0.278
20.366 -9.707 0.278 0.278
20.514 -9.699 0.278 0.278
20.226 -9.485 0.277 0.277
20.422 -9.499 0.278 0.278
20.319 -9.373 0.277 0.277
20.516 -9.347 0.278 0.278
39.183 -17.729 0.342 0.342
39.22 -17.598 0.342 0.342
39.553 -17.598 0.343 0.343
25.602 -9.965 0.293 0.293
25.609 -9.875 0.293 0.293
25.662 -9.849 0.293 0.293
25.719 -9.778 0.294 0.294
26.059 -9.721 0.294 0.294
25.786 -9.526 0.293 0.293
25.909 -9.48 0.294 0.294
52.28 -18.97 0.382 0.382
52.836 -19.078 0.384 0.384
53.502 -19.129 0.386 0.386
54.15 -19.17 0.388 0.388
65.045 -20.083 0.421 0.421
46.134 -13.054 0.358 0.358
46.063 -12.878 0.358 0.358
46.473 -12.835 0.359 0.359
46.821 -12.616 0.36 0.36
60.585 -16.23 0.405 0.405
50.888 -13.457 0.373 0.373
50.678 -13.231 0.372 0.372
53.4 -13.407 0.38 0.38
53.514 -13.257 0.381 0.381
53.222 -13.095 0.38 0.38
52.98 -12.683 0.379 0.379
53.14 -12.545 0.379 0.379
53.485 -12.45 0.38 0.38
53.495 -12.275 0.38 0.38
66.556 9.54 0.102 0.102
73.409 10.996 0.091 0.091
73.428 11.235 0.091 0.091
73.463 11.476 0.091 0.091
69.019 11.003 0.098 0.098
73.53 11.961 0.091 0.091
73.56 12.084 0.091 0.091
58.173 10.775 0.115 0.115
62.28 12.553 0.108 0.108
62.289 12.759 0.108 0.108
62.355 12.874 0.108 0.108
62.416 13.296 0.108 0.108
61.335 14.178 0.109 0.109
60.868 14.271 0.11 0.11
51.191 13.106 0.125 0.125
51.022 13.234 0.125 0.125
51.048 13.412 0.125 0.125
51.075 13.591 0.125 0.125
44.672 12.034 0.135 0.135
44.352 12.097 0.135 0.135
40.713 15.129 0.139 0.139
34.101 16.207 0.148 0.148
34.122 16.348 0.148 0.148
33.99 16.548 0.148 0.148
33.988 16.68 0.148 0.148
34.366 18.855 0.146 0.146
34.389 19.008 0.146 0.146
34.511 19.718 0.145 0.145
34.527 19.871 0.145 0.145
29.597 18.099 0.153 0.153
29.43 18.124 0.153 0.153
29.277 18.157 0.153 0.153
29.11 18.18 0.153 0.153
28.98 18.225 0.153 0.153
22.271 16.683 0.163 0.163
22.318 16.773 0.163 0.163
22.321 16.885 0.163 0.163
22.334 17.005 0.163 0.163
22.347 17.126 0.163 0.163
22.358 17.246 0.163 0.163
22.373 17.371 0.163 0.163
22.408 17.511 0.162 0.162
25.4 19.983 0.156 0.156
22.781 18.094 0.161 0.161
22.604 18.069 0.162 0.162
22.541 18.135 0.162 0.162
22.517 18.232 0.162 0.162
22.521 18.353 0.161 0.161
22.541 18.487 0.161 0.161
17.003 15.925 0.17 0.17
16.937 15.964 0.17 0.17
16.852 16.085 0.17 0.17
16.542 15.888 0.171 0.171
16.464 15.912 0.171 0.171
16.646 16.19 0.17 0.17
16.583 16.18 0.171 0.171
16.499 16.199 0.171 0.171
16.578 16.379 0.17 0.17
16.757 16.661 0.17 0.17
16.796 16.806 0.17 0.17
16.761 16.982 0.169 0.169
16.752 17.027 0.169 0.169
16.616 17.21 0.169 0.169
16.523 17.222 0.169 0.169
16.349 17.148 0.17 0.17
13.908 17.09 0.172 0.172
11.027 15.483 0.177 0.177
10.974 15.511 0.177 0.177
10.941 15.568 0.177 0.177
7.667 19.643 0.174 0.174
7.595 19.639 0.174 0.174
7.565 19.655 0.174 0.174
7.509 19.693 0.174 0.174
5.869 21.473 0.172 0.172
5.8 21.483 0.172 0.172
5.765 21.487 0.172 0.172
5.697 21.503 0.172 0.172
5.625 21.507 0.172 0.172
5.559 21.53 0.172 0.172
5.481 21.505 0.172 0.172
5.396 21.454 0.172 0.172
5.329 21.473 0.172 0.172
5.291 21.462 0.172 0.172
5.224 21.482 0.172 0.172
5.156 21.495 0.172 0.172
5.088 21.509 0.172 0.172
2.275 15.604 0.182 0.182
2.224 15.597 0.182 0.182
2.172 15.582 0.182 0.182
2.128 15.622 0.182 0.182
-3.22 21.169 0.173 0.173
-3.263 21.005 0.174 0.174
-3.335 21.038 0.173 0.173
-3.38 20.895 0.174 0.174
-3.487 21.135 0.173 0.173
-3.536 21.017 0.173 0.173
-3.636 21.207 0.173 0.173
-3.67 21.201 0.173 0.173
-3.758 21.312 0.173 0.173
-3.826 21.304 0.173 0.173
-3.932 21.504 0.173 0.173
-15.243 74.395 0.089 0.089
-15.498 74.448 0.089 0.089
-3.521 15.653 0.182 0.182
-3.573 15.656 0.182 0.182
-3.633 15.691 0.182 0.182
-3.677 15.657 0.182 0.182
-3.796 15.937 0.181 0.181
-17.179 70.265 0.094 0.094
-17.401 70.216 0.094 0.094
-17.681 70.398 0.094 0.094
-18.087 71.067 0.093 0.093
-19.276 72.398 0.09 0.09
-19.559 72.542 0.09 0.09
-12.96 39.572 0.142 0.142
-14.496 37.215 0.145 0.145
-14.664 37.3 0.144 0.144
-14.835 37.389 0.144 0.144
-14.95 37.337 0.144 0.144
-15.234 37.701 0.143 0.143
-24.228 59.382 0.107 0.107
-24.361 59.44 0.107 0.107
-24.597 59.482 0.107 0.107
-24.806 59.459 0.107 0.107
-24.88 59.112 0.107 0.107
-24.942 58.743 0.108 0.108
-25.006 58.385 0.108 0.108
-25.067 58.023 0.109 0.109
-25.133 57.676 0.109 0.109
-25.104 57.364 0.109 0.109
-25.163 57.012 0.11 0.11
-25.222 56.663 0.11 0.11
-25.286 56.329 0.111 0.111
-25.345 55.989 0.111 0.111
-25.417 55.684 0.112 0.112
-25.463 55.324 0.112 0.112
-25.438 55.042 0.113 0.113
-25.494 54.71 0.113 0.113
-25.551 54.387 0.113 0.113
-25.611 54.072 0.114 0.114
-25.669 53.758 0.114 0.114
-25.724 53.442 0.115 0.115
-15.725 28.778 0.156 0.156
-16.066 29.182 0.155 0.155
-16.059 28.742 0.155 0.155
-16.364 29.071 0.155 0.155
-16.497 29.093 0.155 0.155
-32.261 55.418 0.107 0.107
-32.312 55.106 0.107 0.107
-32.371 54.811 0.108 0.108
-32.626 53.126 0.11 0.11
-27.482 44.444 0.126 0.126
-26.32 41.54 0.13 0.13
-27.498 42.506 0.128 0.128
-26.974 41.128 0.13 0.13
-26.85 40.661 0.131 0.131
-25.853 37.975 0.135 0.135
-25.925 37.825 0.135 0.135
-26.45 35.869 0.137 0.137
-26.487 35.684 0.138 0.138
-26.834 35.915 0.137 0.137
-27.095 36.027 0.137 0.137
-27.171 35.892 0.137 0.137
-27.121 35.594 0.137 0.137
-27.45 35.908 0.136 0.136
-42.721 55.498 0.098 0.098
-27.462 33.037 0.14 0.14
-26.89 32.144 0.142 0.142
-26.939 31.999 0.142 0.142
-27.734 32.733 0.14 0.14
-27.775 32.573 0.14 0.14
-30.565 34.394 0.135 0.135
-27.555 30.815 0.142 0.142
-27.975 30.601 0.142 0.142
-28.095 30.539 0.142 0.142
-28.783 29.844 0.142 0.142
-28.845 29.721 0.142 0.142
-31.849 31.898 0.137 0.137
-20.411 19.638 0.163 0.163
-20.56 19.657 0.162 0.162
-20.874 19.831 0.162 0.162
-20.917 19.748 0.162 0.162
-28.927 26.533 0.146 0.146
-29.01 26.442 0.146 0.146
-29.705 26.905 0.144 0.144
-30.827 27.569 0.142 0.142
-32.542 28.918 0.139 0.139
-29.223 25.564 0.146 0.146
-29.196 25.379 0.147 0.147
-29.755 25.701 0.146 0.146
-15.493 12.611 0.176 0.176
-33.815 24.692 0.142 0.142
-31.011 22.498 0.147 0.147
-31.449 22.365 0.147 0.147
-31.454 22.147 0.147 0.147
-32.745 21.11 0.146 0.146
-32.761 20.83 0.146 0.146
-32.745 20.676 0.146 0.146
-33.186 20.019 0.146 0.146
-28.964 16.679 0.155 0.155
-28.72 16.419 0.155 0.155
-31.279 17.49 0.151 0.151
-31.339 17.459 0.151 0.151
-33.192 18.353 0.148 0.148
-57.422 31.495 0.105 0.105
-50.917 27.722 0.117 0.117
-51.063 27.594 0.117 0.117
-51.619 27.685 0.116 0.116
-54.981 29.265 0.11 0.11
-50.84 26.96 0.117 0.117
-50.866 26.77 0.117 0.117
-33.571 17.409 0.148 0.148
-33.611 17.296 0.148 0.148
-33.639 17.177 0.148 0.148
-33.635 17.042 0.148 0.148
-33.601 16.959 0.148 0.148
-33.613 16.833 0.148 0.148
-33.596 16.692 0.148 0.148
-33.614 16.57 0.148 0.148
-33.612 16.438 0.148 0.148
-33.608 16.305 0.149 0.149
-33.601 16.172 0.149 0.149
-33.592 16.038 0.149 0.149
-33.576 15.965 0.149 0.149
-33.561 15.829 0.149 0.149
-33.529 15.686 0.149 0.149
-33.538 15.562 0.149 0.149
-33.865 15.584 0.149 0.149
-54.022 24.637 0.114 0.114
-54.082 24.46 0.115 0.115
-42.412 16.984 0.136 0.136
-42.408 16.751 0.136 0.136
-42.416 16.6 0.136 0.136
-42.429 16.452 0.136 0.136
-42.422 16.296 0.136 0.136
-42.436 16.148 0.136 0.136
-37.968 14.247 0.144 0.144
-37.992 14.12 0.144 0.144
-38.038 14.001 0.144 0.144
-38.091 13.885 0.144 0.144
-38.125 13.762 0.144 0.144
-38.332 13.7 0.143 0.143
-42.531 15.048 0.137 0.137
-77.458 -15.492 0.084 0.084
