ply
format ascii 1.0
element vertex 1832
property float x
property float y
property float z
property float reflect_coeff
end_header
-55.973 29.937 2.356 2.356
-56.279 29.873 2.364 2.364
-54.032 28.465 2.274 2.274
-54.284 28.38 2.28 2.28
-53.827 27.926 2.26 2.26
-33.992 17.444 1.501 1.501
-34.065 17.346 1.502 1.502
-35.986 18.18 1.572 1.572
-53.959 26.822 2.247 2.247
-53.889 26.576 2.241 2.241
-54.2 26.518 2.249 2.249
-53.428 26.037 2.219 2.219
-53.524 25.876 2.219 2.219
-53.671 25.74 2.222 2.222
-54.366 25.863 2.245 2.245
-58.933 27.806 2.413 2.413
-53.933 25.243 2.223 2.223
-56.12 26.05 2.301 2.301
-64.313 29.604 2.603 2.603
-54.35 24.919 2.231 2.231
-38.343 17.443 1.634 1.634
-54.212 24.445 2.22 2.22
-54.21 24.24 2.217 2.217
-54.273 24.063 2.217 2.217
-56.537 24.116 2.288 2.288
-56.406 23.851 2.28 2.28
-56.333 23.612 2.275 2.275
-60.398 24.868 2.418 2.418
-67.129 26.534 2.65 2.65
-45.161 16.802 1.838 1.838
-45.157 16.639 1.836 1.836
-45.183 16.487 1.836 1.836
-45.174 16.324 1.833 1.833
-45.166 16.241 1.832 1.832
-45.168 16.081 1.83 1.83
-45.165 15.921 1.828 1.828
-45.179 15.766 1.827 1.827
-45.202 15.615 1.826 1.826
-45.192 15.453 1.824 1.824
-40.826 13.82 1.667 1.667
-45.103 15.028 1.817 1.817
-45.276 14.928 1.821 1.821
-70.377 -13.926 2.635 2.635
-70.047 -14.089 2.625 2.625
-69.92 -14.292 2.622 2.622
-70.011 -14.541 2.627 2.627
-69.783 -14.607 2.62 2.62
-69.631 -14.804 2.616 2.616
-69.002 -14.897 2.596 2.596
-68.772 -15.073 2.59 2.59
-68.837 -15.314 2.594 2.594
-68.711 -15.513 2.591 2.591
-68.923 -15.789 2.6 2.6
-69.488 -16.033 2.621 2.621
-69.402 -16.243 2.619 2.619
-68.563 -16.274 2.592 2.592
-59.89 -14.411 2.292 2.292
-59.728 -14.57 2.288 2.288
-59.916 -14.816 2.296 2.296
-60.343 -15.123 2.313 2.313
-60.539 -15.375 2.321 2.321
-58.645 -15.384 2.259 2.259
-59.723 -16.069 2.3 2.3
-59.508 -16.212 2.295 2.295
-59.239 -16.339 2.287 2.287
-58.823 -16.522 2.275 2.275
-58.373 -16.991 2.265 2.265
-58.325 -17.176 2.265 2.265
-58.217 -17.343 2.263 2.263
-57.946 -17.461 2.256 2.256
-58.653 -17.775 2.282 2.282
-58.654 -17.977 2.284 2.284
-58.51 -18.133 2.28 2.28
-58.336 -18.281 2.276 2.276
-59.542 -18.865 2.321 2.321
-59.351 -19.009 2.316 2.316
-58.808 -19.039 2.299 2.299
-64.053 -20.851 2.487 2.487
-63.993 -21.054 2.487 2.487
-64.813 -21.55 2.519 2.519
-64.811 -21.776 2.521 2.521
-41.636 -14.125 1.696 1.696
-41.584 -14.253 1.696 1.696
-41.26 -14.287 1.686 1.686
-41.194 -14.337 1.684 1.684
-41.218 -14.491 1.687 1.687
-41.45 -14.719 1.696 1.696
-52.701 -18.908 2.102 2.102
-52.151 -18.896 2.085 2.085
-51.951 -19.008 2.08 2.08
-51.857 -19.158 2.078 2.078
-51.639 -19.263 2.073 2.073
-51.689 -19.374 2.076 2.076
-51.671 -19.552 2.077 2.077
-51.399 -19.634 2.07 2.07
-52 -20.052 2.094 2.094
-51.876 -20.191 2.091 2.091
-51.766 -20.336 2.09 2.09
-53.399 -21.172 2.152 2.152
-52.289 -20.827 2.112 2.112
-52.112 -20.946 2.108 2.108
-52 -21.091 2.107 2.107
-52.283 -21.397 2.119 2.119
-43.46 -18.102 1.801 1.801
-43.624 -18.331 1.809 1.809
-66.234 -28.092 2.642 2.642
-66.214 -28.206 2.643 2.643
-66.373 -28.768 2.655 2.655
-66.354 -29.007 2.658 2.658
-41.85 -18.599 1.758 1.758
-43.996 -19.72 1.839 1.839
-41.614 -18.729 1.752 1.752
-43.62 -19.798 1.829 1.829
-40.979 -18.754 1.733 1.733
-40.841 -19.001 1.732 1.732
-31.408 -15.029 1.386 1.386
-41.421 -20.15 1.767 1.767
-30.978 -15.183 1.376 1.376
-31.054 -15.341 1.38 1.38
-28.646 -14.771 1.299 1.299
-28.947 -15.042 1.312 1.312
-63.891 -33.491 2.648 2.648
-63.957 -33.782 2.655 2.655
-64.024 -33.946 2.66 2.66
-13.446 -13.225 0.847 0.847
-13.314 -13.177 0.843 0.843
-13.258 -13.204 0.842 0.842
-13.22 -13.208 0.841 0.841
14.811 -9.841 0.81 0.81
14.85 -9.833 0.811 0.811
14.978 -9.85 0.815 0.815
15.064 -9.838 0.818 0.818
15.07 -9.775 0.817 0.817
15.067 -9.706 0.815 0.815
15.119 -9.672 0.816 0.816
15.178 -9.643 0.817 0.817
15.278 -9.673 0.821 0.821
15.31 -9.626 0.821 0.821
15.391 -9.609 0.823 0.823
15.487 -9.602 0.825 0.825
17.183 -10.575 0.891 0.891
17.187 -10.504 0.89 0.89
17.205 -10.44 0.89 0.89
17.213 -10.408 0.889 0.889
17.264 -10.365 0.89 0.89
27.455 -16.349 1.29 1.29
15.966 -9.385 0.835 0.835
15.899 -9.278 0.832 0.832
15.915 -9.221 0.831 0.831
15.998 -9.202 0.833 0.833
16.02 -9.181 0.833 0.833
17.763 -9.485 0.89 0.89
31.987 -16.927 1.433 1.433
18.159 -9.549 0.903 0.903
18.198 -9.497 0.903 0.903
18.314 -9.521 0.907 0.907
33.177 -17.092 1.471 1.471
21.555 -11.029 1.028 1.028
21.571 -10.952 1.027 1.027
21.62 -10.892 1.028 1.028
21.688 -10.841 1.029 1.029
21.718 -10.771 1.029 1.029
21.786 -10.761 1.031 1.031
20.531 -9.983 0.981 0.981
21.903 -10.479 1.03 1.03
22.021 -10.45 1.033 1.033
21.952 -10.333 1.03 1.03
21.99 -10.267 1.03 1.03
21.98 -10.221 1.029 1.029
22.036 -10.162 1.03 1.03
22.07 -10.094 1.03 1.03
39.179 -17.749 1.664 1.664
22.151 -9.963 1.03 1.03
22.18 -9.893 1.03 1.03
22.081 -9.766 1.026 1.026
21.992 -9.685 1.022 1.022
22.045 -9.626 1.023 1.023
22.141 -9.585 1.025 1.025
22.946 -9.762 1.052 1.052
22.91 -9.199 1.044 1.044
22.904 -9.113 1.043 1.043
23.234 -9.16 1.054 1.054
62.105 -24.324 2.465 2.465
53.44 -20.741 2.148 2.148
53.213 -20.461 2.137 2.137
52.198 -19.883 2.098 2.098
53.889 -20.333 2.157 2.157
51.563 -19.272 2.071 2.071
52.008 -19.252 2.084 2.084
52.042 -19.172 2.085 2.085
51.719 -18.868 2.071 2.071
51.905 -18.752 2.075 2.075
56.674 -20.271 2.244 2.244
66.314 -23.48 2.588 2.588
66.363 -23.263 2.587 2.587
65.884 -22.863 2.567 2.567
56.897 -19.648 2.245 2.245
57.025 -19.492 2.247 2.247
65.931 -22.301 2.563 2.563
66.335 -22.205 2.575 2.575
66.32 -21.969 2.572 2.572
66.744 -21.645 2.582 2.582
65.974 -21.167 2.552 2.552
65.672 -20.956 2.54 2.54
65.631 -20.716 2.536 2.536
65.707 -20.513 2.537 2.537
65.869 -20.337 2.54 2.54
66.097 -20.18 2.546 2.546
43.983 -13.287 1.763 1.763
43.279 -12.926 1.736 1.736
43.177 -12.822 1.732 1.732
43.846 -12.871 1.754 1.754
43.097 -12.504 1.727 1.727
42.854 -12.288 1.717 1.717
43.279 -12.263 1.73 1.73
42.497 -11.898 1.701 1.701
42.519 -11.76 1.701 1.701
42.395 -11.654 1.696 1.696
43.079 -11.696 1.719 1.719
43.039 -11.54 1.716 1.716
42.841 -11.343 1.708 1.708
50.988 -13.324 1.991 1.991
42.975 -11.09 1.71 1.71
50.759 -12.924 1.98 1.98
43.009 -10.883 1.709 1.709
50.445 -12.591 1.967 1.967
50.585 -12.458 1.971 1.971
50.583 -12.289 1.969 1.969
50.668 -12.141 1.971 1.971
50.852 -12.016 1.976 1.976
50.944 -11.869 1.978 1.978
76.972 8.194 2.336 2.336
76.688 9.507 2.332 2.332
76.454 9.722 2.326 2.326
70.417 10.196 2.164 2.164
70.448 10.426 2.165 2.165
70.457 10.654 2.167 2.167
70.496 10.886 2.169 2.169
70.536 11.119 2.171 2.171
70.582 11.24 2.173 2.173
70.623 11.474 2.175 2.175
66.188 10.969 2.052 2.052
70.688 11.941 2.178 2.178
70.709 12.173 2.18 2.18
70.73 12.406 2.182 2.182
70.688 12.628 2.182 2.182
70.302 12.673 2.172 2.172
61.747 11.334 1.934 1.934
60.089 11.617 1.89 1.89
59.565 11.71 1.877 1.877
59.317 11.855 1.871 1.871
59.366 11.962 1.873 1.873
59.376 12.158 1.874 1.874
59.406 12.359 1.876 1.876
59.398 12.552 1.877 1.877
59.468 12.762 1.88 1.88
59.486 12.961 1.882 1.882
55.111 12.192 1.76 1.76
55.189 12.391 1.763 1.763
59.585 13.474 1.887 1.887
59.616 13.678 1.889 1.889
59.63 13.878 1.891 1.891
58.664 14.433 1.869 1.869
58.214 14.42 1.857 1.857
57.76 14.5 1.845 1.845
48.919 13.187 1.601 1.601
48.524 13.245 1.591 1.591
48.23 13.328 1.584 1.584
48.226 13.49 1.585 1.585
48.255 13.661 1.587 1.587
48.275 13.831 1.588 1.588
48.301 14.003 1.59 1.59
48.338 14.096 1.592 1.592
44.876 13.241 1.494 1.494
44.813 13.376 1.494 1.494
48.398 14.61 1.598 1.598
48.421 14.783 1.6 1.6
48.443 14.956 1.602 1.602
48.467 15.13 1.604 1.604
48.502 15.225 1.605 1.605
48.536 15.403 1.608 1.608
48.558 15.578 1.61 1.61
48.474 15.719 1.609 1.609
48.379 15.856 1.608 1.608
48.048 15.916 1.599 1.599
47.715 15.972 1.591 1.591
45.834 16.229 1.545 1.545
45.536 16.285 1.537 1.537
45.204 16.327 1.529 1.529
44.938 16.311 1.522 1.522
37.797 13.858 1.315 1.315
42.436 15.706 1.452 1.452
37.554 14.037 1.31 1.31
40.005 16.327 1.396 1.396
39.785 16.311 1.39 1.39
39.508 16.342 1.383 1.383
39.283 16.394 1.378 1.378
39.056 16.444 1.373 1.373
33.657 14.299 1.213 1.213
33.45 14.336 1.209 1.209
31.684 14.593 1.167 1.167
31.496 14.567 1.162 1.162
31.325 14.608 1.158 1.158
31.121 14.632 1.154 1.154
30.824 14.611 1.146 1.146
30.879 14.756 1.149 1.149
30.896 14.883 1.151 1.151
30.91 15.01 1.153 1.153
30.947 15.088 1.155 1.155
30.964 15.217 1.157 1.157
30.985 15.348 1.159 1.159
31.002 15.478 1.161 1.161
31.02 15.608 1.163 1.163
31.04 15.741 1.165 1.165
31.252 15.972 1.173 1.173
33.994 17.438 1.258 1.258
34.007 17.58 1.261 1.261
34.019 17.721 1.263 1.263
34.023 17.86 1.264 1.264
31.22 16.516 1.179 1.179
31.175 16.618 1.179 1.179
31.177 16.745 1.181 1.181
31.225 16.833 1.183 1.183
31.24 16.969 1.185 1.185
31.255 17.104 1.188 1.188
31.276 17.244 1.19 1.19
26.415 14.785 1.04 1.04
26.349 14.857 1.04 1.04
30.334 17.669 1.173 1.173
30.165 17.698 1.17 1.17
30.004 17.73 1.166 1.166
29.835 17.757 1.163 1.163
29.697 17.739 1.159 1.159
29.543 17.773 1.156 1.156
29.374 17.798 1.152 1.152
29.216 17.827 1.149 1.149
29.063 17.859 1.146 1.146
26.845 18.171 1.099 1.099
26.703 18.198 1.097 1.097
26.589 18.181 1.094 1.094
26.452 18.21 1.091 1.091
26.308 18.233 1.088 1.088
26.167 18.257 1.085 1.085
26.037 18.289 1.083 1.083
20.849 16.064 0.932 0.932
20.559 15.944 0.924 0.924
20.601 16.081 0.927 0.927
20.508 16.06 0.924 0.924
20.437 16.109 0.924 0.924
20.357 16.149 0.923 0.923
20.097 16.046 0.915 0.915
20.051 16.113 0.915 0.915
20.019 16.191 0.916 0.916
17.14 14.002 0.817 0.817
17.028 14 0.814 0.814
16.922 14.002 0.812 0.812
16.851 14.032 0.811 0.811
16.823 14.099 0.812 0.812
16.784 14.156 0.812 0.812
16.658 14.14 0.809 0.809
16.63 14.207 0.81 0.81
16.663 14.279 0.812 0.812
19.503 16.814 0.916 0.916
16.695 14.49 0.816 0.816
19.553 17.072 0.922 0.922
19.55 17.178 0.924 0.924
19.563 17.299 0.926 0.926
19.585 17.428 0.929 0.929
19.623 17.517 0.931 0.931
22.685 20.373 1.046 1.046
22.704 20.519 1.05 1.05
19.952 18.15 0.95 0.95
19.742 18.187 0.946 0.946
19.708 18.271 0.947 0.947
19.754 18.371 0.95 0.95
19.766 18.499 0.953 0.953
19.774 18.622 0.955 0.955
19.799 18.764 0.958 0.958
15.358 15.362 0.806 0.806
15.276 15.376 0.804 0.804
15.236 15.384 0.804 0.804
15.202 15.446 0.804 0.804
14.966 19.866 0.892 0.892
14.878 19.878 0.891 0.891
14.79 19.891 0.89 0.89
14.709 19.913 0.889 0.889
14.622 19.926 0.888 0.888
14.567 19.916 0.887 0.887
12.163 20.275 0.858 0.858
12.084 20.287 0.857 0.857
12.01 20.308 0.857 0.857
11.93 20.318 0.856 0.856
11.852 20.331 0.855 0.855
11.429 20.944 0.864 0.864
11.448 21.136 0.869 0.869
8.309 15.472 0.691 0.691
8.258 15.493 0.691 0.691
8.211 15.522 0.691 0.691
11.567 22.011 0.892 0.892
11.578 22.201 0.897 0.897
11.641 22.407 0.902 0.902
11.671 22.637 0.908 0.908
11.7 22.87 0.914 0.914
11.732 23.109 0.921 0.921
11.758 23.342 0.927 0.927
11.79 23.59 0.933 0.933
11.821 23.838 0.94 0.94
11.858 24.101 0.947 0.947
11.913 24.31 0.953 0.953
5.939 20.942 0.807 0.807
5.869 20.945 0.806 0.806
5.803 20.962 0.806 0.806
5.733 20.965 0.806 0.806
5.667 20.984 0.806 0.806
5.626 20.962 0.805 0.805
5.565 20.997 0.806 0.806
5.496 21.005 0.805 0.805
5.427 21.011 0.805 0.805
5.358 21.016 0.805 0.805
4.937 19.629 0.765 0.765
4.864 19.598 0.763 0.763
4.801 19.608 0.763 0.763
4.775 19.633 0.764 0.764
4.732 19.727 0.766 0.766
4.986 21.07 0.804 0.804
2.895 20.83 0.786 0.786
2.901 21.364 0.801 0.801
2.836 21.387 0.801 0.801
2.803 21.397 0.802 0.802
2.737 21.418 0.802 0.802
2.668 21.411 0.801 0.801
2.602 21.431 0.802 0.802
2.534 21.433 0.802 0.802
2.468 21.453 0.802 0.802
2.399 21.443 0.801 0.801
2.367 21.462 0.802 0.802
2.299 21.466 0.802 0.802
2.233 21.485 0.802 0.802
2.165 21.484 0.802 0.802
1.358 25.373 0.907 0.907
1.407 27.882 0.976 0.976
1.32 27.901 0.976 0.976
1.167 25.558 0.912 0.912
-0.496 15.489 0.634 0.634
-0.544 15.475 0.634 0.634
-0.593 15.487 0.634 0.634
-0.644 15.531 0.636 0.636
-2.743 20.397 0.774 0.774
-2.821 20.485 0.777 0.777
-2.879 20.431 0.776 0.776
-2.943 20.422 0.776 0.776
-3.012 20.446 0.777 0.777
-3.081 20.694 0.784 0.784
-3.109 20.439 0.777 0.777
-3.194 20.56 0.78 0.78
-3.284 20.714 0.785 0.785
-3.314 20.482 0.779 0.779
-3.377 20.468 0.779 0.779
-3.457 20.548 0.781 0.781
-3.532 20.598 0.783 0.783
-3.562 20.581 0.783 0.783
-5.657 20.797 0.801 0.801
-5.725 20.79 0.801 0.801
-5.8 20.805 0.802 0.802
-5.912 20.954 0.807 0.807
-5.971 20.91 0.806 0.806
-6.09 21.203 0.815 0.815
-6.161 21.201 0.815 0.815
-6.232 21.195 0.816 0.816
-6.307 21.204 0.816 0.816
-6.372 21.18 0.816 0.816
-6.426 21.116 0.815 0.815
-6.525 21.203 0.818 0.818
-6.537 21.124 0.816 0.816
-6.62 21.158 0.818 0.818
-22.847 72.43 2.296 2.296
-6.195 15.771 0.674 0.674
-6.229 15.712 0.673 0.673
-6.284 15.706 0.673 0.673
-6.29 15.578 0.67 0.67
-6.328 15.533 0.669 0.669
-6.441 15.739 0.676 0.676
-16.676 38.256 1.355 1.355
-16.762 38.125 1.353 1.353
-16.962 37.613 1.342 1.342
-17.061 37.518 1.341 1.341
-17.198 37.506 1.342 1.342
-17.25 37.462 1.342 1.342
-27.567 59.414 2.008 2.008
-27.704 59.222 2.005 2.005
-27.768 58.876 1.997 1.997
-27.827 58.523 1.989 1.989
-27.893 58.188 1.982 1.982
-27.947 57.834 1.974 1.974
-27.922 57.552 1.966 1.966
-27.98 57.213 1.959 1.959
-28.035 56.872 1.951 1.951
-28.095 56.544 1.944 1.944
-28.154 56.219 1.936 1.936
-28.208 55.888 1.929 1.929
-28.272 55.579 1.922 1.922
-28.33 55.263 1.915 1.915
-28.347 55.083 1.911 1.911
-28.399 54.759 1.904 1.904
-28.477 54.491 1.898 1.898
-28.443 54.012 1.886 1.886
-28.505 53.719 1.88 1.88
-28.559 53.414 1.873 1.873
-30.036 52.74 1.876 1.876
-30.192 52.821 1.88 1.88
-30.423 52.839 1.884 1.884
-30.665 52.875 1.888 1.888
-30.9 52.895 1.892 1.892
-31.143 52.929 1.896 1.896
-31.383 52.957 1.9 1.9
-31.626 52.986 1.904 1.904
-31.782 53.059 1.908 1.908
-32.022 53.08 1.912 1.912
-18.157 29.033 1.15 1.15
-18.381 29.188 1.156 1.156
-18.071 28.006 1.124 1.124
-18.169 27.964 1.125 1.125
-18.813 28.759 1.153 1.153
-18.556 28.172 1.136 1.136
-18.573 28.101 1.134 1.134
-18.802 28.255 1.141 1.141
-18.78 28.03 1.136 1.136
-18.593 27.563 1.122 1.122
-36.722 53.751 1.997 1.997
-29.833 43.366 1.655 1.655
-31.134 44.209 1.694 1.694
-31.432 44.336 1.702 1.702
-31.467 44.091 1.697 1.697
-31.61 43.998 1.697 1.697
-31.269 43.093 1.672 1.672
-31.898 43.671 1.695 1.695
-28.88 38.132 1.523 1.523
-29.041 38.096 1.525 1.525
-29.002 37.553 1.512 1.512
-30.677 39.467 1.582 1.582
-30.7 39.241 1.578 1.578
-29.251 37.146 1.508 1.508
-29.602 36.99 1.51 1.51
-29.693 36.395 1.499 1.499
-32.68 39.804 1.624 1.624
-29.657 35.888 1.488 1.488
-27.623 33.316 1.398 1.398
-27.654 33.142 1.395 1.395
-28.449 33.879 1.424 1.424
-46.653 55.23 2.195 2.195
-28.74 32.84 1.408 1.408
-28.685 32.569 1.401 1.401
-28.834 32.531 1.403 1.403
-29.014 32.528 1.406 1.406
-28.947 32.248 1.399 1.399
-29.301 32.437 1.41 1.41
-29.316 31.945 1.4 1.4
-32.439 35.13 1.523 1.523
-28.849 31.043 1.373 1.373
-29.297 31.327 1.387 1.387
-28.951 30.762 1.369 1.369
-28.924 30.636 1.366 1.366
-28.879 30.397 1.361 1.361
-29.087 30.423 1.365 1.365
-28.866 30.003 1.353 1.353
-29.074 30.03 1.357 1.357
-28.892 29.655 1.346 1.346
-29.599 30.191 1.37 1.37
-29.78 30.185 1.374 1.374
-29.583 29.891 1.364 1.364
-29.198 29.317 1.346 1.346
-29.338 29.273 1.347 1.347
-29.618 28.819 1.344 1.344
-29.341 28.459 1.332 1.332
-29.341 28.28 1.328 1.328
-31.836 30.496 1.42 1.42
-29.937 28.316 1.341 1.341
-29.758 27.97 1.331 1.331
-33.908 31.675 1.484 1.484
-29.265 26.568 1.295 1.295
-34.066 30.737 1.469 1.469
-31.24 28.007 1.362 1.362
-32.73 29.16 1.413 1.413
-31.074 27.596 1.351 1.351
-32.012 28.25 1.382 1.382
-33.354 27.709 1.4 1.4
-33.641 27.769 1.407 1.407
-33.677 27.622 1.405 1.405
-33.81 27.554 1.407 1.407
-34.178 27.764 1.419 1.419
-33.324 26.896 1.385 1.385
-41.883 31.796 1.654 1.654
-34.29 25.856 1.389 1.389
-32.169 24.097 1.313 1.313
-32.191 24.034 1.313 1.313
-32.364 24.005 1.316 1.316
-32.108 23.659 1.305 1.305
-32.16 23.542 1.304 1.304
-32.332 23.512 1.307 1.307
-32.322 23.35 1.304 1.304
-32.395 23.248 1.304 1.304
-32.456 23.138 1.304 1.304
-18.002 12.692 0.814 0.814
-17.896 12.533 0.809 0.809
-17.924 12.469 0.809 0.809
-17.919 12.382 0.807 0.807
-17.923 12.301 0.806 0.806
-17.932 12.225 0.805 0.805
-17.946 12.193 0.805 0.805
-18.411 12.426 0.819 0.819
-36.217 24.143 1.405 1.405
-35.723 23.49 1.383 1.383
-35.549 23.216 1.375 1.375
-35.134 22.787 1.359 1.359
-33.495 21.648 1.304 1.304
-37.494 24.07 1.433 1.433
-34.298 21.712 1.324 1.324
-33.972 21.356 1.311 1.311
-33.668 20.652 1.294 1.294
-33.888 20.641 1.299 1.299
-34.023 20.577 1.301 1.301
-34.103 20.479 1.302 1.302
-34.21 20.397 1.303 1.303
-34.338 20.327 1.305 1.305
-34.378 20.279 1.305 1.305
-35.357 19.458 1.318 1.318
-35.416 19.346 1.317 1.317
-35.38 19.182 1.314 1.314
-35.429 19.065 1.314 1.314
-53.346 28.613 1.872 1.872
-62.281 33.159 2.147 2.147
-52.931 27.964 1.854 1.854
-60.063 31.494 2.072 2.072
-53.801 27.993 1.875 1.875
-33.991 17.404 1.258 1.258
-34.076 17.313 1.259 1.259
-35.981 18.211 1.317 1.317
-52.918 26.589 1.836 1.836
-53.721 25.944 1.848 1.848
-53.665 25.813 1.845 1.845
-54.011 25.771 1.853 1.853
-53.344 25.246 1.83 1.83
-63.899 30.002 2.148 2.148
-54.093 24.98 1.846 1.846
-54.262 24.851 1.849 1.849
-38.346 17.408 1.366 1.366
-54.147 24.491 1.842 1.842
-54.473 24.433 1.849 1.849
-54.504 23.832 1.843 1.843
-54.585 23.664 1.843 1.843
-56.608 24.225 1.901 1.901
-56.862 24.123 1.906 1.906
-57.193 24.052 1.913 1.913
-57.405 23.929 1.918 1.918
-57.174 23.622 1.908 1.908
-57.277 23.454 1.909 1.909
-60.966 24.743 2.017 2.017
-61.077 24.676 2.019 2.019
-45.131 16.839 1.532 1.532
-45.116 16.672 1.53 1.53
-45.11 16.509 1.529 1.529
-45.137 16.359 1.528 1.528
-45.142 16.2 1.526 1.526
-45.145 16.041 1.525 1.525
-45.125 15.954 1.524 1.524
-45.135 15.798 1.523 1.523
-45.105 15.629 1.52 1.52
-40.796 13.847 1.392 1.392
-45.044 14.976 1.513 1.513
-45.238 14.962 1.518 1.518
-72.015 19.88 2.261 2.261
-71.976 19.626 2.259 2.259
-71.974 19.383 2.257 2.257
-71.973 19.14 2.255 2.255
-71.969 18.897 2.253 2.253
-71.925 18.765 2.251 2.251
-71.92 18.522 2.249 2.249
-71.91 18.279 2.247 2.247
-71.895 18.035 2.245 2.245
-71.891 17.794 2.244 2.244
-71.869 17.549 2.241 2.241
-71.875 17.312 2.24 2.24
-71.871 17.072 2.238 2.238
-71.835 16.944 2.237 2.237
-71.83 16.705 2.235 2.235
-71.825 16.466 2.233 2.233
-71.822 16.228 2.232 2.232
-71.808 15.988 2.23 2.23
-71.804 15.75 2.229 2.229
-71.806 15.515 2.227 2.227
-71.777 15.39 2.226 2.226
-71.761 15.151 2.224 2.224
-71.767 14.917 2.223 2.223
-71.77 14.683 2.222 2.222
-71.757 14.445 2.22 2.22
-70.124 -13.781 2.172 2.172
-70.241 -14.034 2.177 2.177
-69.739 -14.389 2.165 2.165
-69.636 -14.597 2.164 2.164
-69.703 -14.839 2.167 2.167
-69.107 -15.053 2.152 2.152
-69.921 -15.461 2.176 2.176
-60.837 -13.857 1.923 1.923
-60.631 -14.011 1.919 1.919
-60.404 -14.158 1.913 1.913
-60.36 -14.248 1.913 1.913
-60.488 -14.479 1.918 1.918
-59.941 -14.548 1.903 1.903
-60.006 -14.763 1.907 1.907
-60.112 -14.99 1.911 1.911
-59.701 -15.086 1.901 1.901
-59.697 -15.285 1.902 1.902
-58.872 -15.37 1.881 1.881
-58.998 -15.601 1.885 1.885
-59.139 -15.837 1.891 1.891
-59.466 -16.125 1.902 1.902
-59.708 -16.392 1.91 1.91
-59.714 -16.596 1.912 1.912
-60.451 -17.005 1.934 1.934
-58.606 -17.184 1.887 1.887
-58.46 -17.341 1.884 1.884
-58.853 -17.86 1.899 1.899
-58.788 -17.942 1.898 1.898
-59.429 -18.341 1.918 1.918
-59.352 -18.522 1.917 1.917
-59.124 -18.655 1.912 1.912
-59.08 -18.845 1.913 1.913
-65.293 -21.05 2.094 2.094
-65.864 -21.463 2.112 2.112
-64.052 -21.096 2.062 2.062
-64.283 -21.284 2.069 2.069
-41.507 -13.897 1.411 1.411
-41.594 -14.072 1.415 1.415
-41.485 -14.181 1.413 1.413
-41.219 -14.235 1.407 1.407
-41.12 -14.345 1.405 1.405
-41.176 -14.51 1.408 1.408
-52.802 -18.692 1.748 1.748
-52.555 -18.791 1.742 1.742
-42.571 -15.377 1.452 1.452
-42.423 -15.475 1.449 1.449
-42.526 -15.664 1.454 1.454
-42.494 -15.804 1.454 1.454
-42.451 -15.94 1.455 1.455
-51.741 -19.608 1.729 1.729
-51.828 -19.734 1.732 1.732
-51.993 -19.984 1.739 1.739
-51.941 -20.151 1.74 1.74
-52.019 -20.37 1.744 1.744
-52.34 -20.685 1.755 1.755
-41.519 -16.565 1.437 1.437
-41.543 -16.726 1.439 1.439
-65.032 -26.286 2.136 2.136
-41.673 -17.007 1.445 1.445
-41.726 -17.182 1.449 1.449
-65.559 -27.221 2.159 2.159
-65.49 -27.433 2.16 2.16
-65.068 -27.497 2.15 2.15
-65.684 -28.001 2.171 2.171
-65.892 -28.212 2.178 2.178
-66.251 -28.612 2.192 2.192
-34.328 -15.224 1.24 1.24
-33.513 -15.116 1.219 1.219
-33.152 -15.142 1.21 1.21
-33.108 -15.248 1.21 1.21
-13.331 -13.131 0.723 0.723
-13.256 -13.14 0.722 0.722
-13.201 -13.168 0.721 0.721
-13.162 -13.212 0.721 0.721
14.968 -9.994 0.703 0.703
14.894 -9.809 0.699 0.699
14.944 -9.809 0.7 0.7
14.938 -9.738 0.699 0.699
15.047 -9.742 0.701 0.701
14.972 -9.626 0.698 0.698
15.031 -9.597 0.699 0.699
15.069 -9.556 0.699 0.699
15.294 -9.631 0.705 0.705
15.332 -9.588 0.706 0.706
15.414 -9.605 0.708 0.708
15.44 -9.555 0.708 0.708
17.233 -10.593 0.764 0.764
17.18 -10.486 0.762 0.762
17.069 -10.345 0.757 0.757
17.177 -10.336 0.759 0.759
17.374 -10.381 0.765 0.765
17.937 -10.528 0.78 0.78
17.214 -9.886 0.754 0.754
17.292 -9.822 0.755 0.755
17.443 -9.836 0.759 0.759
17.5 -9.796 0.76 0.76
17.807 -9.496 0.763 0.763
31.637 -16.766 1.192 1.192
18.104 -9.508 0.771 0.771
17.938 -9.35 0.764 0.764
17.923 -9.27 0.763 0.763
18.278 -9.381 0.773 0.773
33.075 -16.934 1.23 1.23
33.668 -17.105 1.246 1.246
33.968 -17.124 1.254 1.254
34.2 -17.106 1.259 1.259
34.444 -17.093 1.265 1.265
21.79 -10.718 0.876 0.876
21.825 -10.65 0.876 0.876
21.912 -10.65 0.878 0.878
22.016 -10.615 0.88 0.88
21.847 -10.281 0.872 0.872
22.161 -10.133 0.878 0.878
22.14 -10.039 0.877 0.877
22.162 -9.965 0.876 0.876
22.246 -9.919 0.878 0.878
22.372 -9.891 0.881 0.881
22.308 -9.779 0.878 0.878
22.44 -9.795 0.881 0.881
22.293 -9.648 0.876 0.876
22.962 -9.767 0.894 0.894
43.966 -17.997 1.514 1.514
44.274 -17.961 1.521 1.521
44.874 -18.041 1.538 1.538
45.294 -18.045 1.548 1.548
45.512 -17.966 1.553 1.553
49.801 -18.495 1.668 1.668
50.988 -18.755 1.701 1.701
51.957 -18.834 1.727 1.727
56.005 -20.105 1.844 1.844
55.729 -19.808 1.834 1.834
55.939 -19.685 1.838 1.838
56.248 -19.596 1.845 1.845
56.493 -19.482 1.851 1.851
56.548 -19.303 1.85 1.85
66.778 -22.215 2.142 2.142
66.629 -21.934 2.136 2.136
63.259 -20.383 2.035 2.035
63.463 -20.229 2.039 2.039
65.547 -20.781 2.098 2.098
65.652 -20.588 2.099 2.099
66.089 -20.497 2.11 2.11
66.21 -20.307 2.112 2.112
66.285 -20.102 2.112 2.112
43.974 -13.176 1.47 1.47
43.252 -12.811 1.448 1.448
43.26 -12.74 1.448 1.448
43.296 -12.603 1.448 1.448
42.75 -12.153 1.43 1.43
42.807 -12.024 1.43 1.43
42.99 -11.784 1.433 1.433
42.906 -11.689 1.431 1.431
42.923 -11.549 1.43 1.43
43.019 -11.43 1.432 1.432
50.602 -12.77 1.643 1.643
50.886 -12.672 1.65 1.65
51.222 -12.329 1.656 1.656
51.301 -12.178 1.657 1.657
51.479 -12.05 1.661 1.661
76.572 9.681 1.966 1.966
70.48 10.375 1.831 1.831
70.518 10.607 1.832 1.832
70.536 10.837 1.834 1.834
70.578 11.07 1.835 1.835
70.64 11.535 1.838 1.838
66.341 10.939 1.74 1.74
66.271 11.141 1.739 1.739
70.742 12.123 1.843 1.843
70.786 12.36 1.845 1.845
70.779 12.588 1.846 1.846
70.609 12.787 1.843 1.843
59.775 11.696 1.596 1.596
59.383 11.813 1.587 1.587
59.373 12.005 1.588 1.588
59.392 12.203 1.589 1.589
59.421 12.404 1.591 1.591
59.47 12.511 1.592 1.592
59.499 12.713 1.594 1.594
59.49 12.907 1.595 1.595
59.539 13.113 1.597 1.597
55.115 12.319 1.495 1.495
59.608 13.522 1.6 1.6
59.631 13.724 1.602 1.602
59.676 13.833 1.603 1.603
59.686 14.033 1.605 1.605
49.627 12.572 1.374 1.374
48.868 12.707 1.358 1.358
48.765 13.172 1.359 1.359
48.581 13.286 1.355 1.355
48.359 13.307 1.351 1.351
48.265 13.445 1.349 1.349
48.283 13.613 1.351 1.351
48.307 13.784 1.352 1.352
48.321 13.952 1.354 1.354
48.359 14.128 1.356 1.356
48.368 14.296 1.357 1.357
44.866 13.412 1.275 1.275
48.438 14.565 1.36 1.36
48.41 14.723 1.361 1.361
48.478 14.91 1.363 1.363
48.49 15.081 1.365 1.365
48.515 15.256 1.367 1.367
48.539 15.431 1.368 1.368
48.557 15.605 1.37 1.37
48.62 15.709 1.372 1.372
48.517 15.845 1.371 1.371
48.222 15.916 1.365 1.365
47.902 15.978 1.358 1.358
45.698 16.285 1.313 1.313
45.404 16.341 1.307 1.307
45.09 16.388 1.301 1.301
44.801 16.443 1.295 1.295
37.81 13.94 1.126 1.126
37.629 14.008 1.123 1.123
42.454 15.959 1.241 1.241
40.41 16.287 1.201 1.201
40.17 16.336 1.196 1.196
39.893 16.37 1.19 1.19
39.693 16.434 1.187 1.187
33.737 14.088 1.041 1.041
31.533 14.345 0.997 0.997
31.592 14.492 1 1
30.958 14.437 0.986 0.986
31.049 14.658 0.99 0.99
30.951 14.85 0.99 0.99
30.962 14.975 0.992 0.992
30.983 15.106 0.993 0.993
30.994 15.232 0.995 0.995
31.026 15.308 0.996 0.996
31.056 15.445 0.998 0.998
31.068 15.573 1 1
31.075 15.699 1.001 1.001
30.991 15.779 1 1
31.095 15.955 1.004 1.004
34.016 17.592 1.081 1.081
34.065 17.685 1.082 1.082
34.068 17.823 1.084 1.084
31.326 16.511 1.015 1.015
31.242 16.593 1.014 1.014
31.242 16.719 1.015 1.015
31.251 16.851 1.017 1.017
31.263 16.984 1.019 1.019
31.268 17.114 1.02 1.02
31.325 17.209 1.022 1.022
26.277 14.755 0.895 0.895
30.549 17.604 1.011 1.011
30.408 17.65 1.009 1.009
30.305 17.718 1.008 1.008
30.145 17.751 1.005 1.005
29.977 17.779 1.002 1.002
29.814 17.81 0.999 0.999
29.647 17.836 0.996 0.996
29.516 17.821 0.994 0.994
29.356 17.85 0.991 0.991
29.192 17.876 0.988 0.988
27.007 18.093 0.949 0.949
26.972 18.192 0.949 0.949
26.825 18.216 0.947 0.947
26.687 18.245 0.945 0.945
26.544 18.27 0.942 0.942
26.425 18.249 0.94 0.94
26.476 18.407 0.943 0.943
20.813 15.866 0.804 0.804
20.557 15.773 0.798 0.798
20.541 15.863 0.799 0.799
20.524 15.953 0.8 0.8
20.493 16.033 0.801 0.801
20.353 16.026 0.798 0.798
20.014 15.861 0.79 0.79
20.089 15.973 0.793 0.793
20.167 16.138 0.797 0.797
20.054 16.151 0.795 0.795
17.2 14.027 0.714 0.714
17.091 14.027 0.712 0.712
16.991 14.035 0.71 0.71
16.958 14.053 0.71 0.71
16.896 14.091 0.709 0.709
16.853 14.145 0.709 0.709
16.802 14.193 0.709 0.709
16.739 14.23 0.709 0.709
16.678 14.268 0.708 0.708
16.715 14.391 0.711 0.711
16.697 14.421 0.711 0.711
16.742 14.552 0.713 0.713
19.59 17.142 0.801 0.801
19.599 17.259 0.803 0.803
19.615 17.383 0.805 0.805
19.635 17.511 0.807 0.807
19.635 17.622 0.809 0.809
22.742 20.482 0.905 0.905
22.747 20.617 0.907 0.907
19.941 18.183 0.823 0.823
19.821 18.188 0.821 0.821
19.752 18.239 0.821 0.821
19.76 18.362 0.823 0.823
19.774 18.491 0.825 0.825
19.818 18.591 0.827 0.827
19.833 18.723 0.829 0.829
15.386 15.411 0.704 0.704
15.309 15.431 0.703 0.703
15.255 15.473 0.703 0.703
15.212 15.526 0.703 0.703
14.962 19.903 0.775 0.775
14.874 19.916 0.774 0.774
14.787 19.929 0.773 0.773
14.704 19.948 0.773 0.773
14.619 19.963 0.772 0.772
14.53 19.973 0.771 0.771
12.212 20.325 0.748 0.748
12.131 20.336 0.748 0.748
12.081 20.324 0.747 0.747
12.005 20.341 0.746 0.746
11.926 20.353 0.746 0.746
11.85 20.37 0.745 0.745
11.407 20.872 0.75 0.75
11.432 21.075 0.754 0.754
11.45 21.267 0.758 0.758
8.327 15.511 0.609 0.609
8.273 15.527 0.609 0.609
8.232 15.567 0.609 0.609
11.604 22.136 0.778 0.778
11.619 22.336 0.782 0.782
11.646 22.561 0.787 0.787
11.681 22.804 0.792 0.792
11.744 23.016 0.797 0.797
11.772 23.253 0.802 0.802
11.804 23.499 0.807 0.807
11.837 23.751 0.813 0.813
11.868 24.003 0.818 0.818
11.899 24.258 0.824 0.824
5.967 20.972 0.705 0.705
5.931 20.968 0.705 0.705
5.865 20.988 0.705 0.705
5.793 20.985 0.704 0.704
5.727 21.003 0.704 0.704
5.658 21.01 0.704 0.704
5.592 21.025 0.704 0.704
5.523 21.033 0.704 0.704
5.49 21.042 0.704 0.704
5.42 21.042 0.703 0.703
5.348 21.035 0.703 0.703
4.935 19.665 0.67 0.67
4.865 19.645 0.669 0.669
4.803 19.66 0.669 0.669
4.746 19.695 0.67 0.67
5.041 21.074 0.702 0.702
4.979 21.107 0.702 0.702
3.038 20.533 0.681 0.681
3.089 21.346 0.7 0.7
3.028 21.397 0.7 0.7
2.96 21.401 0.7 0.7
2.893 21.414 0.7 0.7
2.826 21.423 0.7 0.7
2.758 21.426 0.7 0.7
2.724 21.432 0.7 0.7
2.658 21.448 0.701 0.701
2.591 21.464 0.701 0.701
2.524 21.471 0.701 0.701
2.456 21.48 0.701 0.701
2.389 21.488 0.701 0.701
2.321 21.493 0.701 0.701
2.254 21.508 0.701 0.701
2.22 21.508 0.701 0.701
2.153 21.519 0.701 0.701
1.461 27.904 0.845 0.845
1.374 27.919 0.845 0.845
1.173 25.396 0.787 0.787
1.09 25.346 0.786 0.786
-0.494 15.538 0.562 0.562
-0.542 15.53 0.562 0.562
-0.591 15.539 0.562 0.562
-2.717 20.354 0.676 0.676
-2.781 20.588 0.681 0.681
-2.858 20.668 0.683 0.683
-2.9 20.494 0.68 0.68
-2.966 20.499 0.68 0.68
-3.061 20.693 0.685 0.685
-3.129 20.703 0.685 0.685
-3.18 20.607 0.683 0.683
-3.213 20.602 0.683 0.683
-3.275 20.574 0.683 0.683
-3.377 20.794 0.688 0.688
-3.445 20.799 0.688 0.688
-3.506 20.763 0.688 0.688
-3.541 20.576 0.684 0.684
-3.6 20.535 0.683 0.683
-5.63 20.899 0.701 0.701
-5.689 20.858 0.701 0.701
-5.824 21.089 0.707 0.707
-5.896 21.094 0.707 0.707
-5.903 20.867 0.702 0.702
-6.045 21.112 0.708 0.708
-6.11 21.091 0.708 0.708
-6.205 21.169 0.711 0.711
-6.264 21.244 0.713 0.713
-6.339 21.253 0.713 0.713
-6.382 21.154 0.712 0.712
-6.478 21.232 0.714 0.714
-6.534 21.175 0.713 0.713
-6.631 21.252 0.715 0.715
-6.678 21.17 0.714 0.714
-6.199 15.78 0.594 0.594
-6.233 15.721 0.593 0.593
-6.296 15.735 0.594 0.594
-6.302 15.607 0.592 0.592
-6.345 15.575 0.591 0.591
-6.341 15.425 0.588 0.588
-26.477 63.347 1.772 1.772
-16.696 38.272 1.159 1.159
-16.733 38.031 1.155 1.155
-16.859 38.154 1.158 1.158
-16.985 38.114 1.159 1.159
-16.98 37.783 1.152 1.152
-17.06 37.644 1.15 1.15
-17.154 37.538 1.148 1.148
-17.27 37.48 1.148 1.148
-17.855 38.43 1.173 1.173
-17.688 37.76 1.158 1.158
-27.792 59.054 1.695 1.695
-17.779 37.494 1.153 1.153
-17.851 37.342 1.151 1.151
-28.069 57.291 1.661 1.661
-28.132 56.966 1.655 1.655
-28.095 56.667 1.649 1.649
-28.151 56.336 1.643 1.643
-28.213 56.018 1.637 1.637
-28.273 55.701 1.631 1.631
-28.324 55.37 1.625 1.625
-28.444 55.178 1.622 1.622
-28.639 55.129 1.623 1.623
-28.506 53.837 1.596 1.596
-28.565 53.541 1.59 1.59
-30.197 52.746 1.593 1.593
-30.432 52.772 1.596 1.596
-30.668 52.797 1.599 1.599
-30.823 52.872 1.602 1.602
-31.063 52.902 1.606 1.606
-31.307 52.935 1.609 1.609
-31.55 52.965 1.612 1.612
-32.03 53.011 1.619 1.619
-26.846 44.126 1.385 1.385
-26.951 44.141 1.386 1.386
-18.008 29.304 0.992 0.992
-28.514 45.407 1.429 1.429
-18.518 29.302 0.998 0.998
-18.361 28.852 0.987 0.987
-18.756 29.269 1 1
-18.804 29.243 1 1
-18.749 28.957 0.994 0.994
-18.713 28.704 0.989 0.989
-18.977 28.909 0.996 0.996
-18.584 28.119 0.976 0.976
-18.95 28.476 0.987 0.987
-18.657 27.847 0.972 0.972
-18.755 27.899 0.974 0.974
-18.775 27.741 0.971 0.971
-29.69 43.546 1.409 1.409
-29.141 41.609 1.365 1.365
-29.199 41.552 1.365 1.365
-29.44 41.616 1.369 1.369
-31.559 44.313 1.447 1.447
-31.308 43.671 1.432 1.432
-28.604 38.735 1.305 1.305
-28.969 38.215 1.3 1.3
-29.027 38.042 1.298 1.298
-42.428 54.69 1.785 1.785
-29.243 37.464 1.291 1.291
-29.552 37.134 1.289 1.289
-29.684 37.059 1.29 1.29
-29.618 36.74 1.283 1.283
-31.251 38.639 1.34 1.34
-33.019 40.562 1.4 1.4
-31.076 37.933 1.325 1.325
-29.76 36.098 1.274 1.274
-28.38 34.206 1.221 1.221
-30.397 36.401 1.288 1.288
-30.103 35.82 1.274 1.274
-29.572 34.855 1.249 1.249
-29.635 34.707 1.248 1.248
-28.439 33.097 1.202 1.202
-28.439 32.888 1.199 1.199
-28.423 32.661 1.194 1.194
-28.666 32.733 1.199 1.199
-28.517 32.459 1.192 1.192
-28.653 32.001 1.187 1.187
-28.928 32.104 1.193 1.193
-29.039 32.025 1.193 1.193
-29.305 31.613 1.19 1.19
-29.469 31.589 1.192 1.192
-29.205 31.111 1.18 1.18
-28.883 30.576 1.166 1.166
-28.625 30.113 1.155 1.155
-28.439 29.729 1.145 1.145
-29.307 30.54 1.172 1.172
-28.67 29.69 1.148 1.148
-28.963 29.805 1.155 1.155
-28.789 29.441 1.146 1.146
-28.883 29.351 1.146 1.146
-29.94 28.843 1.155 1.155
-31.061 29.455 1.183 1.183
-31.02 29.231 1.179 1.179
-31.576 29.383 1.191 1.191
-30.595 28.026 1.153 1.153
-29.214 26.594 1.108 1.108
-34.509 31.211 1.268 1.268
-34.43 30.943 1.263 1.263
-34.574 30.876 1.264 1.264
-34.657 30.756 1.264 1.264
-31.239 27.551 1.157 1.157
-32.611 28.578 1.196 1.196
-31.212 27.267 1.152 1.152
-31.295 27.166 1.152 1.152
-31.857 27.305 1.164 1.164
-31.775 26.465 1.15 1.15
-31.205 25.825 1.131 1.131
-31.218 25.671 1.129 1.129
-31.334 25.602 1.13 1.13
-32.119 25.331 1.14 1.14
-31.523 24.542 1.118 1.118
-31.573 24.422 1.117 1.117
-31.751 24.4 1.12 1.12
-31.876 24.417 1.123 1.123
-40.605 30.892 1.37 1.37
-34.266 25.906 1.187 1.187
-32.118 24.125 1.123 1.123
-32.165 24.003 1.122 1.122
-32.473 24.074 1.129 1.129
-32.083 23.63 1.116 1.116
-32.273 23.691 1.12 1.12
-32.121 23.425 1.114 1.114
-32.752 23.727 1.129 1.129
-32.3 23.246 1.115 1.115
-17.959 12.684 0.709 0.709
-17.9 12.559 0.706 0.706
-17.915 12.527 0.706 0.706
-17.915 12.443 0.705 0.705
-17.947 12.382 0.705 0.705
-17.966 12.312 0.704 0.704
-17.973 12.235 0.703 0.703
-18.018 12.183 0.704 0.704
-18.052 12.123 0.704 0.704
-35.334 23.618 1.176 1.176
-35.272 23.417 1.173 1.173
-33.299 21.959 1.117 1.117
-33.398 21.874 1.118 1.118
-34.36 22.349 1.142 1.142
-33.545 21.67 1.118 1.118
-33.606 21.56 1.118 1.118
-33.724 21.561 1.12 1.12
-33.674 21.38 1.117 1.117
-33.717 21.259 1.116 1.116
-33.733 21.121 1.115 1.115
-33.689 20.947 1.112 1.112
-33.735 20.829 1.111 1.111
-34.016 20.855 1.117 1.117
-33.886 20.702 1.113 1.113
-33.948 20.594 1.113 1.113
-34.404 20.723 1.123 1.123
-34.737 20.775 1.13 1.13
-34.524 20.5 1.123 1.123
-34.463 19.239 1.107 1.107
-34.887 19.332 1.117 1.117
-35.972 19.858 1.144 1.144
-39.025 21.223 1.22 1.22
-42.103 22.723 1.298 1.298
-42.028 22.512 1.294 1.294
-42.028 22.343 1.292 1.292
-53.732 28.341 1.592 1.592
-53.778 28.257 1.592 1.592
-53.292 27.789 1.577 1.577
-33.979 17.458 1.078 1.078
-33.927 17.297 1.076 1.076
-35.959 18.189 1.126 1.126
-53.818 26.68 1.576 1.576
-53.882 26.501 1.576 1.576
-54.003 26.35 1.577 1.577
-53.974 26.126 1.574 1.574
-58.247 27.967 1.68 1.68
-54.12 25.779 1.574 1.574
-54.158 25.588 1.573 1.573
-61.05 28.257 1.74 1.74
-38.311 17.452 1.167 1.167
-54.476 24.084 1.565 1.565
-54.495 23.887 1.563 1.563
-56.478 23.81 1.604 1.604
-56.485 23.604 1.603 1.603
-57.044 23.627 1.615 1.615
-60.911 25.003 1.708 1.708
-71.981 28.36 1.97 1.97
-72.004 28.108 1.969 1.969
-71.978 27.838 1.966 1.966
-71.972 27.576 1.964 1.964
-71.954 27.31 1.961 1.961
-45.153 16.824 1.306 1.306
-45.14 16.739 1.305 1.305
-45.142 16.578 1.304 1.304
-45.146 16.419 1.302 1.302
-45.16 16.264 1.302 1.302
-45.156 16.102 1.3 1.3
-45.161 15.945 1.299 1.299
-45.166 15.787 1.298 1.298
-45.2 15.64 1.298 1.298
-45.155 15.545 1.296 1.296
-40.798 13.904 1.19 1.19
-40.829 13.772 1.19 1.19
-45.151 15.069 1.292 1.292
-45.225 14.936 1.293 1.293
-71.877 23.472 1.93 1.93
-71.865 23.218 1.928 1.928
-71.833 23.083 1.927 1.927
-71.84 22.837 1.925 1.925
-71.827 22.585 1.923 1.923
-71.826 22.336 1.921 1.921
-71.842 22.094 1.92 1.92
-71.842 21.847 1.919 1.919
-71.822 21.595 1.916 1.916
-71.806 21.467 1.915 1.915
-71.804 21.221 1.914 1.914
-71.811 20.978 1.912 1.912
-71.806 20.732 1.911 1.911
-71.793 20.484 1.909 1.909
-71.811 20.246 1.908 1.908
-71.813 20.003 1.906 1.906
-71.802 19.757 1.904 1.904
-71.777 19.629 1.903 1.903
-71.777 19.387 1.902 1.902
-71.781 19.146 1.9 1.9
-71.783 18.905 1.899 1.899
-71.772 18.662 1.897 1.897
-71.776 18.422 1.896 1.896
-71.783 18.184 1.895 1.895
-71.769 18.06 1.894 1.894
-71.763 17.819 1.892 1.892
-71.741 17.575 1.891 1.891
-71.763 17.341 1.89 1.89
-71.765 17.103 1.889 1.889
-71.77 16.866 1.887 1.887
-71.77 16.629 1.886 1.886
-71.769 16.391 1.885 1.885
-71.744 16.267 1.884 1.884
-71.754 16.032 1.883 1.883
-71.741 15.793 1.881 1.881
-71.745 15.558 1.88 1.88
-71.749 15.323 1.879 1.879
-71.744 15.086 1.878 1.878
-71.752 14.853 1.877 1.877
-71.738 14.732 1.876 1.876
-71.737 14.497 1.875 1.875
-71.747 14.265 1.874 1.874
-50.168 -9.894 1.373 1.373
-70.593 -14.741 1.851 1.851
-69.413 -15.178 1.827 1.827
-69.455 -15.416 1.829 1.829
-60.618 -13.551 1.623 1.623
-60.645 -13.757 1.625 1.625
-60.576 -13.942 1.624 1.624
-60.785 -14.191 1.63 1.63
-60.686 -14.369 1.629 1.629
-60.531 -14.534 1.626 1.626
-60.377 -14.697 1.624 1.624
-59.893 -14.679 1.613 1.613
-59.688 -14.828 1.609 1.609
-60.011 -15.108 1.618 1.618
-59.89 -15.278 1.616 1.616
-59.712 -15.433 1.613 1.613
-59.615 -15.607 1.612 1.612
-58.934 -15.627 1.597 1.597
-59.174 -15.79 1.603 1.603
-58.877 -15.909 1.597 1.597
-58.902 -16.115 1.599 1.599
-59.257 -16.412 1.609 1.609
-59.73 -16.948 1.622 1.622
-59.439 -17.371 1.619 1.619
-58.652 -17.341 1.601 1.601
-50.718 -15.165 1.414 1.414
-50.761 -15.352 1.416 1.416
-59.553 -18.22 1.627 1.627
-59.696 -18.469 1.632 1.632
-59.649 -18.66 1.632 1.632
-59.515 -18.721 1.629 1.629
-47.394 -15.23 1.342 1.342
-47.88 -15.553 1.355 1.355
-47.772 -15.684 1.353 1.353
-45.087 -14.958 1.29 1.29
-45.473 -15.404 1.302 1.302
-41.615 -14.168 1.21 1.21
-41.474 -14.265 1.207 1.207
-41.21 -14.319 1.202 1.202
-41.153 -14.445 1.202 1.202
-41.443 -14.693 1.21 1.21
-42.507 -15.222 1.237 1.237
-42.335 -15.31 1.234 1.234
-42.288 -15.368 1.233 1.233
-42.257 -15.507 1.233 1.233
-42.442 -15.727 1.239 1.239
-51.85 -19.591 1.471 1.471
-40.288 -15.361 1.19 1.19
-38.198 -14.7 1.14 1.14
-52.034 -20.129 1.479 1.479
-38.253 -14.929 1.144 1.144
-41.623 -16.397 1.227 1.227
-41.924 -16.821 1.237 1.237
-33.909 -14.411 1.047 1.047
-33.698 -14.446 1.043 1.043
-13.364 -13.173 0.636 0.636
-13.295 -13.186 0.635 0.635
-13.239 -13.214 0.634 0.634
-13.193 -13.251 0.634 0.634
14.835 -9.901 0.614 0.614
14.813 -9.819 0.613 0.613
14.82 -9.757 0.612 0.612
14.83 -9.697 0.612 0.612
14.915 -9.685 0.613 0.613
14.918 -9.654 0.613 0.613
15.007 -9.645 0.615 0.615
14.956 -9.546 0.612 0.612
17.043 -10.464 0.664 0.664
17.079 -10.412 0.664 0.664
17.274 -10.457 0.668 0.668
17.168 -10.319 0.664 0.664
17.353 -10.356 0.669 0.669
18.005 -10.554 0.684 0.684
17.95 -10.446 0.681 0.681
17.836 -10.305 0.677 0.677
17.35 -9.808 0.662 0.662
17.475 -9.806 0.665 0.665
17.573 -9.825 0.667 0.667
17.52 -9.723 0.665 0.665
18.235 -9.747 0.679 0.679
18.137 -9.659 0.676 0.676
17.768 -9.391 0.666 0.666
18.171 -9.531 0.676 0.676
18.075 -9.408 0.672 0.672
17.965 -9.28 0.669 0.669
33.003 -16.892 1.053 1.053
33.549 -17.039 1.065 1.065
33.926 -17.162 1.074 1.074
34.06 -17.096 1.076 1.076
34.4 -17.131 1.084 1.084
34.599 -17.095 1.087 1.087
34.845 -17.08 1.092 1.092
35.321 -17.176 1.103 1.103
21.763 -10.468 0.758 0.758
21.78 -10.391 0.758 0.758
21.819 -10.326 0.758 0.758
22.254 -10.361 0.767 0.767
38.222 -17.411 1.165 1.165
38.636 -17.453 1.174 1.174
38.91 -17.429 1.179 1.179
39.189 -17.407 1.185 1.185
39.487 -17.391 1.191 1.191
22.596 -9.879 0.77 0.77
22.695 -9.838 0.772 0.772
22.861 -9.867 0.775 0.775
23.019 -9.849 0.779 0.779
23.002 -9.756 0.777 0.777
44.396 -17.988 1.299 1.299
44.684 -18.022 1.306 1.306
44.907 -17.949 1.31 1.31
45.332 -17.953 1.319 1.319
50.14 -18.5 1.426 1.426
50.784 -18.556 1.44 1.44
51.024 -18.463 1.444 1.444
52.36 -18.667 1.474 1.474
55.883 -19.526 1.557 1.557
56.077 -19.396 1.56 1.56
56.37 -19.3 1.565 1.565
56.849 -19.264 1.575 1.575
60.157 -20.068 1.653 1.653
60.573 -19.995 1.661 1.661
60.637 -19.805 1.661 1.661
60.326 -19.494 1.652 1.652
60.972 -19.491 1.666 1.666
63.145 -19.64 1.714 1.714
65.15 -19.815 1.759 1.759
65.899 -19.816 1.776 1.776
43.981 -13.084 1.253 1.253
43.367 -12.606 1.237 1.237
43.526 -12.504 1.24 1.24
72 -20.299 1.912 1.912
42.623 -11.883 1.216 1.216
47.938 -13.038 1.34 1.34
50.461 -12.79 1.394 1.394
50.601 -12.657 1.396 1.396
50.315 -12.418 1.389 1.389
51.203 -12.296 1.408 1.408
51.435 -12.095 1.412 1.412
51.473 -11.934 1.412 1.412
77.016 8.098 1.386 1.386
70.816 10.046 1.296 1.296
70.462 10.221 1.291 1.291
70.485 10.451 1.292 1.292
70.522 10.57 1.293 1.293
70.557 10.802 1.294 1.294
70.577 11.032 1.294 1.294
70.617 11.265 1.296 1.296
70.64 11.497 1.296 1.296
66.297 11.005 1.23 1.23
61.679 10.44 1.159 1.159
70.751 12.086 1.3 1.3
60.593 10.55 1.143 1.143
70.738 12.542 1.301 1.301
59.459 10.739 1.127 1.127
60.154 11.548 1.14 1.14
59.611 11.639 1.132 1.132
59.376 11.787 1.129 1.129
59.396 11.985 1.129 1.129
59.417 12.183 1.13 1.13
59.443 12.383 1.131 1.131
59.47 12.584 1.132 1.132
59.511 12.69 1.133 1.133
59.537 12.891 1.134 1.134
59.58 13.097 1.136 1.136
55.116 12.299 1.067 1.067
59.538 13.48 1.136 1.136
59.641 13.701 1.139 1.139
58.707 14.363 1.127 1.127
58.225 14.439 1.12 1.12
57.79 14.524 1.114 1.114
49.127 13.092 0.981 0.981
48.763 13.16 0.976 0.976
48.567 13.271 0.974 0.974
48.267 13.352 0.97 0.97
48.264 13.514 0.97 0.97
48.294 13.605 0.971 0.971
48.319 13.775 0.972 0.972
48.35 13.949 0.973 0.973
48.356 14.115 0.974 0.974
48.365 14.283 0.975 0.975
44.834 13.395 0.92 0.92
48.424 14.631 0.977 0.977
48.479 14.731 0.978 0.978
48.498 14.904 0.98 0.98
48.479 15.065 0.98 0.98
48.531 15.248 0.982 0.982
48.559 15.425 0.983 0.983
48.565 15.595 0.984 0.984
48.535 15.753 0.984 0.984
48.452 15.81 0.983 0.983
48.109 15.866 0.978 0.978
47.79 15.928 0.974 0.974
45.587 16.236 0.944 0.944
45.286 16.29 0.94 0.94
44.986 16.342 0.936 0.936
44.745 16.414 0.933 0.933
37.744 13.984 0.82 0.82
42.409 15.937 0.897 0.897
41.057 16.17 0.879 0.879
40.798 16.216 0.876 0.876
40.577 16.203 0.872 0.872
33.762 13.609 0.761 0.761
33.65 13.687 0.76 0.76
31.522 13.933 0.732 0.732
31.408 14.001 0.731 0.731
31.021 14.004 0.725 0.725
30.846 14.042 0.723 0.723
31.518 14.587 0.736 0.736
31.075 14.501 0.729 0.729
31.101 14.633 0.731 0.731
30.988 14.639 0.729 0.729
30.927 14.729 0.729 0.729
30.917 14.844 0.729 0.729
30.946 14.977 0.731 0.731
30.962 15.105 0.732 0.732
30.98 15.235 0.733 0.733
30.995 15.363 0.734 0.734
31.009 15.492 0.735 0.735
31.051 15.574 0.736 0.736
31.068 15.704 0.737 0.737
30.967 15.776 0.736 0.736
33.996 17.451 0.789 0.789
34.014 17.595 0.79 0.79
34.035 17.741 0.792 0.792
34.041 17.881 0.793 0.793
31.277 16.494 0.746 0.746
31.211 16.585 0.745 0.745
31.217 16.714 0.746 0.746
31.125 16.791 0.746 0.746
31.229 16.974 0.748 0.748
31.188 17.078 0.749 0.749
30.852 17.021 0.744 0.744
26.43 14.748 0.668 0.668
26.376 14.827 0.668 0.668
30.043 17.701 0.738 0.738
29.874 17.728 0.736 0.736
29.71 17.757 0.734 0.734
29.535 17.779 0.732 0.732
29.377 17.81 0.73 0.73
29.25 17.796 0.729 0.729
29.09 17.824 0.727 0.727
28.935 17.854 0.725 0.725
27.136 18.131 0.704 0.704
26.993 18.097 0.702 0.702
26.876 18.141 0.701 0.701
26.733 18.167 0.699 0.699
26.848 18.368 0.703 0.703
20.778 15.504 0.602 0.602
20.61 15.481 0.6 0.6
20.482 15.485 0.598 0.598
20.546 15.635 0.6 0.6
20.7 15.855 0.604 0.604
20.417 15.689 0.599 0.599
20.182 15.611 0.596 0.596
19.953 15.534 0.592 0.592
19.94 15.625 0.593 0.593
20.238 15.961 0.6 0.6
20.149 15.993 0.599 0.599
19.647 15.696 0.59 0.59
19.99 16.229 0.599 0.599
17.092 13.97 0.544 0.544
16.991 13.977 0.542 0.542
16.907 13.997 0.542 0.542
16.848 14.037 0.541 0.541
16.889 14.116 0.543 0.543
16.775 14.111 0.541 0.541
16.731 14.164 0.541 0.541
16.692 14.222 0.541 0.541
16.731 14.346 0.543 0.543
16.693 14.405 0.543 0.543
16.668 14.474 0.544 0.544
19.573 17.045 0.603 0.603
19.583 17.162 0.604 0.604
19.593 17.28 0.605 0.605
19.611 17.405 0.607 0.607
19.637 17.539 0.608 0.608
22.703 20.4 0.672 0.672
22.706 20.532 0.673 0.673
19.763 18.159 0.616 0.616
19.742 18.255 0.617 0.617
19.754 18.381 0.618 0.618
19.703 18.45 0.618 0.618
19.76 18.62 0.621 0.621
19.777 18.753 0.622 0.622
19.729 18.766 0.622 0.622
19.403 18.69 0.618 0.618
19.344 18.751 0.618 0.618
19.372 18.897 0.619 0.619
15.318 15.378 0.538 0.538
15.251 15.407 0.537 0.537
15.206 15.458 0.538 0.538
14.787 19.898 0.585 0.585
14.727 19.883 0.584 0.584
12.23 20.255 0.568 0.568
12.152 20.269 0.567 0.567
12.074 20.283 0.567 0.567
11.999 20.302 0.566 0.566
11.924 20.321 0.566 0.566
11.871 20.303 0.565 0.565
11.712 20.178 0.563 0.563
11.425 20.95 0.571 0.571
11.458 21.169 0.574 0.574
8.302 15.469 0.475 0.475
8.243 15.475 0.474 0.474
8.236 15.52 0.475 0.475
11.609 22.02 0.586 0.586
11.616 22.204 0.589 0.589
11.642 22.423 0.592 0.592
11.671 22.653 0.595 0.595
11.706 22.896 0.599 0.599
11.734 23.129 0.602 0.602
11.763 23.367 0.606 0.606
11.83 23.593 0.609 0.609
11.859 23.836 0.613 0.613
11.896 24.1 0.617 0.617
11.917 24.333 0.62 0.62
5.996 20.913 0.539 0.539
5.927 20.92 0.538 0.538
5.859 20.931 0.538 0.538
5.823 20.928 0.538 0.538
5.757 20.945 0.538 0.538
5.69 20.959 0.538 0.538
5.623 20.973 0.538 0.538
5.554 20.979 0.538 0.538
5.487 20.992 0.538 0.538
5.418 20.999 0.538 0.538
5.384 21.002 0.538 0.538
4.959 19.606 0.515 0.515
4.887 19.583 0.515 0.515
4.825 19.594 0.515 0.515
4.769 19.633 0.515 0.515
4.977 21.057 0.537 0.537
3.282 20.78 0.528 0.528
3.097 21.34 0.536 0.536
3.029 21.343 0.536 0.536
2.996 21.35 0.536 0.536
2.928 21.355 0.536 0.536
2.863 21.38 0.536 0.536
2.795 21.377 0.536 0.536
2.728 21.392 0.536 0.536
2.661 21.4 0.536 0.536
2.594 21.411 0.536 0.536
2.56 21.411 0.536 0.536
2.494 21.429 0.536 0.536
2.426 21.428 0.536 0.536
2.359 21.44 0.536 0.536
2.292 21.453 0.536 0.536
2.224 21.458 0.536 0.536
2.157 21.471 0.536 0.536
-0.453 15.531 0.444 0.444
-0.5 15.498 0.444 0.444
-0.525 15.507 0.444 0.444
-0.574 15.515 0.444 0.444
-2.682 20.388 0.521 0.521
-2.752 20.421 0.521 0.521
-2.849 20.65 0.525 0.525
-2.917 20.663 0.525 0.525
-2.93 20.521 0.523 0.523
-2.983 20.435 0.522 0.522
-3.055 20.481 0.523 0.523
-3.156 20.708 0.526 0.526
-3.199 20.558 0.524 0.524
-3.242 20.411 0.522 0.522
-3.33 20.549 0.524 0.524
-3.368 20.582 0.525 0.525
-3.446 20.652 0.526 0.526
-3.493 20.532 0.525 0.525
-3.548 20.466 0.524 0.524
-5.436 20.73 0.534 0.534
-5.521 20.791 0.535 0.535
-5.584 20.764 0.535 0.535
-5.672 20.829 0.536 0.536
-5.772 20.938 0.538 0.538
-5.84 21.058 0.54 0.54
-5.918 21.082 0.541 0.541
-5.978 21.039 0.54 0.54
-6.072 21.118 0.542 0.542
-6.144 21.12 0.542 0.542
-6.238 21.194 0.544 0.544
-6.309 21.19 0.544 0.544
-6.384 21.199 0.544 0.544
-6.505 21.235 0.546 0.546
-6.523 21.06 0.543 0.543
-6.635 21.186 0.545 0.545
-23.085 73.117 1.374 1.374
-6.223 15.684 0.464 0.464
-6.246 15.671 0.464 0.464
-6.266 15.579 0.463 0.463
-6.31 15.546 0.463 0.463
-6.337 15.472 0.462 0.462
-26.298 63.852 1.258 1.258
-15.387 37.001 0.817 0.817
-15.545 37.052 0.819 0.819
-15.592 36.839 0.816 0.816
-15.614 36.73 0.815 0.815
-16.573 37.991 0.838 0.838
-16.689 37.93 0.838 0.838
-26.837 60.006 1.208 1.208
-17.144 38.15 0.844 0.844
-17.35 38.287 0.847 0.847
-17.412 38.103 0.845 0.845
-27.324 59.337 1.201 1.201
-17.511 37.692 0.84 0.84
-17.608 37.591 0.839 0.839
-17.657 37.389 0.837 0.837
-17.623 37.016 0.831 0.831
-27.994 58.597 1.196 1.196
-28.1 58.346 1.193 1.193
-28.103 57.885 1.187 1.187
-28 57.214 1.177 1.177
-28.141 55.935 1.16 1.16
-28.206 55.628 1.157 1.157
-28.262 55.308 1.153 1.153
-28.41 55.169 1.152 1.152
-29.331 56.521 1.176 1.176
-28.765 55.005 1.152 1.152
-28.527 53.725 1.133 1.133
-28.493 53.457 1.129 1.129
-30.182 52.769 1.132 1.132
-30.426 52.811 1.135 1.135
-30.651 52.817 1.137 1.137
-30.897 52.859 1.139 1.139
-31.133 52.88 1.141 1.141
-31.288 52.954 1.143 1.143
-32.514 53.106 1.155 1.155
-18.09 29.318 0.732 0.732
-18.442 29.166 0.733 0.733
-18.368 28.846 0.728 0.728
-18.535 28.908 0.73 0.73
-18.647 28.883 0.731 0.731
-18.472 28.513 0.725 0.725
-18.444 28.274 0.721 0.721
-18.961 28.87 0.733 0.733
-19.014 28.753 0.732 0.732
-18.6 27.934 0.718 0.718
-18.627 27.786 0.717 0.717
-18.878 27.969 0.721 0.721
-18.918 27.935 0.721 0.721
-19.116 28.037 0.724 0.724
-30.301 43.873 1.019 1.019
-28.986 41.687 0.98 0.98
-29.1 41.571 0.98 0.98
-29.252 41.51 0.98 0.98
-38.236 53.911 1.213 1.213
-38.441 54.021 1.216 1.216
-38.718 54.049 1.219 1.219
-31.287 43.38 1.021 1.021
-31.398 43.246 1.021 1.021
-28.615 38.638 0.939 0.939
-28.751 38.567 0.939 0.939
-29.137 38.957 0.948 0.948
-29.606 38.564 0.947 0.947
-29.516 37.341 0.932 0.932
-29.673 37.299 0.933 0.933
-29.63 37.005 0.929 0.929
-31.465 38.796 0.968 0.968
-33.21 40.819 1.008 1.008
-33.303 40.672 1.007 1.007
-45.562 55.302 1.298 1.298
-32.059 38.653 0.972 0.972
-30.521 36.562 0.932 0.932
-46.285 55.114 1.303 1.303
-29.418 34.792 0.901 0.901
-29.628 34.819 0.903 0.903
-28.444 33.319 0.874 0.874
-28.459 33.125 0.872 0.872
-28.366 32.808 0.867 0.867
-28.514 32.77 0.869 0.869
-28.576 32.634 0.868 0.868
-29.019 31.406 0.858 0.858
-29.035 31.324 0.857 0.857
-29.065 31.16 0.856 0.856
-30.848 32.659 0.891 0.891
-29.458 30.99 0.858 0.858
-29.607 30.952 0.859 0.859
-29.588 30.738 0.857 0.857
-29.445 30.398 0.852 0.852
-29.685 30.55 0.856 0.856
-29.485 30.153 0.849 0.849
-29.187 29.661 0.841 0.841
-29.296 29.584 0.841 0.841
-29.188 29.291 0.837 0.837
-29.196 29.116 0.835 0.835
-29.272 29.008 0.835 0.835
-37.421 35.385 0.991 0.991
-37.331 35.189 0.988 0.988
-29.039 27.193 0.813 0.813
-36.336 33.821 0.963 0.963
